ncols	125
nrows	152
xllcorner	-2042055
yllcorner	1465125
cellsize	30.000000
NODATA_value	-9999.000000
3.92	3.58	3.11	3.03	3.22	3.56	3.90	4.06	3.98	3.76	3.57	3.42	3.18	2.78	2.46	2.25	2.08	1.99	2.02	2.05	1.87	1.48	1.27	1.33	1.53	1.78	2.12	2.53	2.84	2.97	2.97	2.83	2.50	1.96	1.56	1.66	2.01	2.14	2.04	2.08	2.23	2.42	2.66	2.83	2.88	2.99	3.34	3.89	3.93	3.22	2.26	1.56	1.00	0.62	0.49	0.53	0.62	0.74	0.94	1.27	1.72	2.20	2.54	2.71	2.83	2.91	2.84	2.62	2.48	2.48	2.66	3.17	3.66	3.79	3.62	3.29	2.85	2.30	1.86	1.82	2.02	2.15	2.18	2.09	1.90	1.85	1.99	2.09	2.05	2.04	2.19	2.34	2.46	2.59	2.78	2.99	3.25	3.65	4.06	4.37	4.71	5.16	5.48	5.49	5.17	4.52	3.81	3.30	2.91	2.72	2.72	2.77	3.06	3.76	4.04	3.50	2.92	2.67	2.47	2.20	1.94	1.70	1.82	2.01	2.01
3.78	3.66	3.37	3.19	3.20	3.37	3.53	3.49	3.29	3.15	3.12	3.10	2.99	2.81	2.65	2.49	2.29	2.07	1.91	1.75	1.44	1.10	1.07	1.25	1.49	1.70	1.97	2.15	2.16	2.09	1.97	1.76	1.54	1.31	1.30	1.59	1.79	1.71	1.63	1.74	1.85	2.01	2.21	2.36	2.52	2.83	3.30	3.67	3.52	2.72	1.83	1.10	0.61	0.47	0.59	0.81	0.94	1.05	1.30	1.74	2.23	2.67	2.91	2.99	3.03	3.05	3.00	2.88	2.79	2.81	3.06	3.58	3.83	3.54	2.93	2.29	1.84	1.56	1.49	1.72	2.05	2.25	2.27	2.12	1.99	2.10	2.29	2.37	2.40	2.47	2.56	2.67	2.84	3.06	3.30	3.55	3.83	4.09	4.25	4.39	4.74	5.17	5.21	4.66	4.09	3.53	3.01	2.76	2.49	2.31	2.36	2.66	3.27	4.01	4.06	3.27	2.53	2.24	2.11	2.01	1.88	1.75	1.86	2.01	2.01
3.83	3.76	3.41	3.09	2.89	2.83	2.75	2.53	2.28	2.25	2.38	2.49	2.49	2.50	2.51	2.48	2.31	2.02	1.73	1.40	1.00	0.83	0.94	1.13	1.23	1.31	1.41	1.43	1.40	1.40	1.35	1.32	1.35	1.36	1.46	1.62	1.66	1.60	1.63	1.74	1.79	1.85	1.95	2.07	2.31	2.84	3.29	3.44	3.11	2.39	1.50	0.81	0.59	0.78	1.12	1.28	1.27	1.34	1.69	2.20	2.73	3.11	3.29	3.35	3.40	3.44	3.39	3.23	3.08	3.10	3.40	3.71	3.48	2.69	1.92	1.59	1.53	1.51	1.63	2.01	2.45	2.68	2.62	2.47	2.55	2.72	2.71	2.62	2.58	2.59	2.63	2.73	2.92	3.17	3.36	3.43	3.46	3.40	3.30	3.47	4.11	4.60	4.24	3.43	3.23	3.00	2.57	2.21	1.99	2.07	2.54	3.27	3.90	4.28	4.04	3.20	2.44	1.99	1.76	1.65	1.64	1.71	1.88	2.01	2.01
3.98	3.72	3.12	2.64	2.31	2.20	2.14	1.96	1.81	1.84	1.95	1.95	1.90	1.94	2.09	2.19	2.12	1.92	1.58	1.16	0.88	0.88	1.01	1.06	1.02	1.00	1.07	1.19	1.27	1.33	1.34	1.42	1.59	1.70	1.75	1.82	1.88	1.88	1.92	1.98	2.03	2.08	2.20	2.41	2.77	3.24	3.40	3.18	2.65	1.93	1.27	0.94	1.06	1.46	1.76	1.75	1.59	1.69	2.17	2.78	3.31	3.68	3.83	3.86	3.91	3.95	3.86	3.67	3.51	3.50	3.62	3.45	2.70	1.90	1.61	1.71	1.84	1.84	1.99	2.44	2.92	3.09	3.00	3.03	3.23	3.24	2.96	2.66	2.54	2.58	2.66	2.74	2.85	2.95	2.85	2.56	2.38	2.30	2.34	2.85	3.86	4.31	3.60	2.85	2.82	2.60	2.01	1.65	1.68	2.22	3.14	3.73	4.14	4.29	3.88	3.11	2.56	2.20	1.91	1.75	1.75	1.81	1.89	1.96	1.96
3.94	3.47	2.65	2.05	1.68	1.76	1.93	1.93	1.88	1.98	2.07	2.01	1.90	1.92	2.00	1.92	1.80	1.73	1.54	1.29	1.16	1.14	1.12	1.06	1.03	1.06	1.22	1.42	1.55	1.62	1.66	1.72	1.87	2.03	2.13	2.26	2.37	2.38	2.36	2.42	2.55	2.74	2.96	3.27	3.57	3.67	3.37	2.80	2.20	1.71	1.36	1.34	1.66	2.07	2.27	2.16	2.00	2.26	2.91	3.59	4.11	4.37	4.38	4.32	4.28	4.23	4.14	4.03	3.92	3.80	3.57	3.04	2.25	1.96	2.16	2.41	2.41	2.30	2.45	2.91	3.33	3.49	3.54	3.69	3.71	3.41	2.98	2.66	2.57	2.62	2.69	2.70	2.69	2.53	2.13	1.89	1.95	2.14	2.45	3.22	4.25	4.30	3.24	2.56	2.44	2.01	1.44	1.37	1.77	2.55	3.16	3.57	4.09	4.16	3.54	2.79	2.46	2.40	2.39	2.38	2.34	2.20	2.08	2.05	2.05
3.65	3.20	2.27	1.56	1.36	1.64	2.03	2.24	2.39	2.57	2.65	2.62	2.54	2.42	2.22	1.87	1.59	1.56	1.56	1.50	1.43	1.29	1.15	1.12	1.20	1.37	1.59	1.78	1.89	1.98	2.04	2.07	2.20	2.39	2.55	2.71	2.84	2.85	2.83	2.95	3.23	3.49	3.74	3.91	3.88	3.54	2.90	2.24	1.89	1.72	1.61	1.77	2.17	2.57	2.68	2.50	2.49	2.96	3.75	4.39	4.73	4.75	4.55	4.33	4.17	4.06	3.99	3.95	3.91	3.76	3.47	3.13	2.82	2.93	3.29	3.44	3.32	3.17	3.28	3.56	3.83	3.98	4.08	4.08	3.76	3.28	2.87	2.60	2.56	2.64	2.68	2.61	2.48	2.23	2.05	2.22	2.59	2.90	3.33	4.07	4.59	4.16	2.86	2.15	1.94	1.55	1.14	1.32	1.92	2.40	2.85	3.65	4.29	4.03	3.17	2.52	2.27	2.36	2.56	2.74	2.75	2.58	2.34	2.21	2.21
3.42	2.96	1.96	1.34	1.45	2.12	2.78	3.17	3.43	3.57	3.58	3.50	3.30	2.92	2.43	1.95	1.63	1.53	1.55	1.54	1.47	1.34	1.24	1.31	1.50	1.71	1.91	2.07	2.20	2.33	2.48	2.63	2.79	2.94	3.05	3.19	3.34	3.38	3.45	3.64	3.87	4.02	4.01	3.81	3.34	2.66	1.98	1.64	1.71	1.82	1.96	2.29	2.73	3.02	2.96	2.72	2.90	3.60	4.35	4.73	4.75	4.50	4.14	3.84	3.69	3.63	3.66	3.66	3.58	3.51	3.52	3.62	3.87	4.19	4.45	4.53	4.50	4.47	4.49	4.46	4.43	4.42	4.33	4.02	3.50	2.96	2.61	2.49	2.61	2.76	2.74	2.62	2.51	2.48	2.70	3.10	3.39	3.58	3.95	4.52	4.52	3.63	2.39	1.71	1.42	1.08	0.88	1.23	1.77	2.25	3.18	4.27	4.44	3.61	2.68	2.22	2.09	2.20	2.37	2.51	2.60	2.62	2.50	2.39	2.39
3.10	2.51	1.54	1.35	2.00	3.01	3.76	4.16	4.32	4.27	4.09	3.83	3.47	3.00	2.56	2.19	1.87	1.67	1.59	1.55	1.50	1.46	1.51	1.69	1.88	2.04	2.22	2.42	2.56	2.71	2.98	3.31	3.60	3.77	3.84	3.88	3.88	3.85	3.96	4.12	4.14	3.97	3.59	3.00	2.29	1.64	1.36	1.47	1.87	2.19	2.50	2.89	3.22	3.26	3.04	2.91	3.29	4.03	4.47	4.49	4.20	3.78	3.40	3.16	3.12	3.17	3.24	3.25	3.19	3.23	3.49	3.84	4.25	4.61	4.81	4.94	5.03	5.07	5.00	4.84	4.61	4.44	4.15	3.67	3.14	2.81	2.73	2.87	3.06	3.09	2.93	2.76	2.73	2.90	3.22	3.40	3.39	3.44	3.90	4.36	3.90	2.62	1.77	1.23	0.86	0.67	0.84	1.39	1.96	2.74	3.90	4.50	4.08	2.87	2.23	2.05	2.03	2.08	2.04	1.97	2.06	2.30	2.43	2.52	2.52
2.40	1.95	1.51	1.87	2.96	4.02	4.55	4.66	4.53	4.23	3.88	3.52	3.14	2.80	2.56	2.34	2.09	1.85	1.71	1.66	1.66	1.74	1.95	2.19	2.37	2.49	2.70	2.92	3.07	3.26	3.63	4.04	4.32	4.45	4.44	4.27	4.07	4.01	4.04	3.96	3.67	3.20	2.55	1.84	1.34	1.19	1.40	1.88	2.43	2.84	3.19	3.48	3.56	3.36	3.12	3.21	3.68	4.09	4.16	3.85	3.38	2.94	2.60	2.43	2.52	2.56	2.52	2.50	2.57	2.77	3.10	3.48	3.87	4.13	4.25	4.34	4.43	4.46	4.44	4.29	4.15	3.95	3.68	3.35	3.17	3.22	3.43	3.62	3.64	3.39	3.07	2.86	2.84	2.92	3.00	2.88	2.73	2.98	3.76	3.95	2.89	1.82	1.10	0.74	0.64	0.81	1.30	1.98	2.57	3.30	4.21	4.37	3.43	2.34	2.02	2.11	2.17	2.09	1.93	1.78	1.75	1.92	2.20	2.47	2.47
2.13	2.11	2.33	3.07	4.10	4.75	4.83	4.54	4.10	3.63	3.26	2.96	2.67	2.46	2.34	2.24	2.12	1.95	1.84	1.86	2.01	2.27	2.58	2.82	3.00	3.18	3.39	3.60	3.79	4.04	4.39	4.63	4.63	4.47	4.18	3.82	3.67	3.67	3.52	3.08	2.54	1.99	1.40	1.03	1.07	1.40	1.98	2.65	3.16	3.55	3.77	3.77	3.60	3.38	3.27	3.43	3.70	3.76	3.50	3.00	2.51	2.13	1.83	1.82	2.02	2.04	1.90	1.84	1.95	2.20	2.63	2.99	3.20	3.23	3.15	3.11	3.00	3.08	3.19	3.18	3.30	3.37	3.31	3.30	3.40	3.54	3.64	3.62	3.46	3.18	2.92	2.79	2.76	2.67	2.50	2.32	2.45	3.10	3.79	3.48	2.16	1.14	0.68	0.62	0.88	1.40	2.00	2.66	3.18	3.69	4.28	4.07	2.87	2.01	1.96	2.22	2.28	2.11	2.01	1.95	1.87	1.82	2.02	2.31	2.31
2.67	3.00	3.61	4.19	4.69	4.84	4.52	3.96	3.39	3.00	2.74	2.51	2.28	2.10	1.99	1.98	2.00	1.96	1.97	2.10	2.41	2.78	3.07	3.29	3.49	3.73	3.97	4.21	4.42	4.63	4.77	4.66	4.25	3.69	3.12	2.79	2.94	2.95	2.51	1.88	1.33	1.01	0.84	1.01	1.46	2.01	2.69	3.30	3.76	4.01	3.95	3.69	3.38	3.21	3.21	3.30	3.33	3.12	2.68	2.19	1.79	1.50	1.40	1.59	1.84	1.89	1.86	1.91	1.98	2.13	2.42	2.73	2.86	2.73	2.44	2.22	2.17	2.41	2.58	2.60	2.75	2.92	3.03	3.12	3.20	3.15	2.96	2.74	2.63	2.58	2.60	2.62	2.63	2.53	2.41	2.48	2.86	3.43	3.60	2.88	1.57	0.86	0.75	0.99	1.45	1.94	2.50	3.14	3.59	3.87	3.95	3.48	2.38	1.94	2.10	2.29	2.21	1.98	1.93	1.98	1.92	1.77	1.88	2.06	2.06
3.31	3.61	4.09	4.38	4.52	4.36	3.87	3.31	2.84	2.59	2.41	2.19	1.99	1.82	1.72	1.78	1.88	1.96	2.05	2.18	2.42	2.67	2.94	3.24	3.53	3.85	4.16	4.41	4.54	4.53	4.33	3.84	3.09	2.45	2.01	2.00	2.19	1.99	1.43	0.97	0.76	0.79	1.04	1.57	2.11	2.65	3.28	3.80	4.11	4.08	3.72	3.29	3.00	2.87	2.87	2.89	2.77	2.48	2.04	1.63	1.32	1.19	1.29	1.55	1.75	1.83	1.98	2.20	2.29	2.29	2.40	2.58	2.67	2.52	2.19	1.98	2.12	2.42	2.45	2.36	2.50	2.63	2.67	2.67	2.63	2.54	2.42	2.33	2.30	2.35	2.44	2.47	2.48	2.48	2.58	2.83	3.07	3.33	3.20	2.29	1.26	0.96	1.12	1.63	2.06	2.40	2.80	3.30	3.58	3.50	3.31	2.94	2.42	2.38	2.51	2.46	2.28	2.09	1.92	1.76	1.64	1.54	1.64	1.76	1.76
3.88	3.88	3.92	3.98	3.94	3.66	3.24	2.83	2.53	2.34	2.16	1.93	1.74	1.61	1.59	1.69	1.82	1.94	2.01	2.04	2.11	2.24	2.52	2.89	3.35	3.78	4.08	4.16	4.04	3.71	3.16	2.43	1.72	1.33	1.25	1.39	1.41	1.19	0.90	0.79	0.88	1.21	1.73	2.27	2.76	3.29	3.79	4.13	4.15	3.84	3.37	2.99	2.75	2.59	2.52	2.49	2.37	2.10	1.70	1.33	1.13	1.23	1.56	1.89	2.04	2.15	2.40	2.54	2.44	2.31	2.32	2.42	2.47	2.39	2.17	2.09	2.32	2.48	2.28	2.15	2.27	2.33	2.32	2.31	2.32	2.38	2.43	2.45	2.42	2.38	2.38	2.35	2.34	2.39	2.49	2.61	2.82	3.03	2.76	1.81	1.08	0.99	1.44	1.96	2.22	2.41	2.72	3.12	3.16	2.81	2.88	3.06	3.10	3.20	3.17	3.06	2.93	2.67	2.18	1.67	1.34	1.27	1.47	1.73	1.73
4.37	4.02	3.62	3.55	3.40	3.14	2.84	2.54	2.32	2.14	1.94	1.73	1.54	1.48	1.57	1.71	1.84	1.95	2.00	2.03	2.15	2.37	2.73	3.15	3.58	3.88	3.87	3.59	3.12	2.53	1.81	1.19	0.78	0.72	0.88	1.04	1.07	1.03	1.01	1.13	1.42	1.90	2.43	2.94	3.42	3.87	4.16	4.19	3.93	3.49	3.06	2.75	2.51	2.37	2.34	2.33	2.20	1.93	1.64	1.41	1.43	1.77	2.20	2.48	2.60	2.74	2.83	2.64	2.36	2.30	2.34	2.26	2.21	2.26	2.24	2.28	2.46	2.46	2.22	2.12	2.16	2.14	2.14	2.23	2.29	2.36	2.39	2.35	2.28	2.25	2.25	2.25	2.27	2.32	2.32	2.36	2.59	2.70	2.18	1.18	0.71	0.87	1.49	1.78	1.78	1.95	2.34	2.68	2.63	2.62	3.19	3.80	3.99	3.93	3.79	3.64	3.41	3.01	2.48	1.83	1.41	1.29	1.60	2.07	2.07
4.62	4.15	3.55	3.35	3.14	2.92	2.73	2.50	2.28	2.12	1.94	1.74	1.61	1.62	1.73	1.89	1.96	2.06	2.18	2.36	2.66	3.07	3.49	3.78	3.89	3.76	3.36	2.74	2.06	1.41	0.79	0.47	0.50	0.72	0.97	1.12	1.22	1.35	1.49	1.68	1.99	2.43	2.99	3.55	4.01	4.31	4.29	4.00	3.55	3.08	2.70	2.44	2.30	2.26	2.32	2.32	2.11	1.89	1.83	1.94	2.25	2.70	3.06	3.21	3.25	3.23	3.03	2.72	2.57	2.59	2.45	2.17	2.05	2.22	2.34	2.34	2.43	2.47	2.39	2.31	2.25	2.16	2.16	2.25	2.27	2.25	2.20	2.12	2.07	2.08	2.13	2.18	2.24	2.27	2.23	2.25	2.40	2.23	1.40	0.59	0.48	0.83	1.28	1.33	1.36	1.68	2.11	2.37	2.59	3.22	4.24	4.75	4.56	4.18	3.84	3.49	3.06	2.61	2.25	1.95	1.72	1.64	2.05	2.46	2.46
4.75	4.27	3.61	3.33	3.09	2.90	2.78	2.61	2.45	2.35	2.22	2.04	1.99	2.02	2.08	2.12	2.12	2.20	2.42	2.77	3.21	3.59	3.78	3.73	3.46	3.01	2.46	1.79	1.08	0.53	0.30	0.45	0.79	1.13	1.37	1.54	1.69	1.82	2.01	2.20	2.44	2.88	3.51	4.07	4.42	4.47	4.17	3.65	3.11	2.68	2.41	2.31	2.30	2.33	2.36	2.22	1.97	1.97	2.18	2.61	3.21	3.74	4.02	4.08	3.94	3.71	3.38	3.16	3.13	2.97	2.52	2.11	2.14	2.42	2.47	2.34	2.43	2.61	2.64	2.52	2.38	2.26	2.24	2.25	2.22	2.16	2.10	2.04	2.01	2.00	2.01	2.07	2.13	2.14	2.10	2.10	2.07	1.63	0.80	0.53	0.65	0.99	1.15	1.21	1.42	1.80	2.19	2.60	3.37	4.48	5.32	5.29	4.51	3.76	3.31	2.88	2.44	2.03	1.82	1.82	1.87	2.14	2.51	2.65	2.65
4.75	4.29	3.64	3.31	3.10	2.98	2.84	2.69	2.58	2.49	2.39	2.25	2.22	2.27	2.30	2.27	2.19	2.22	2.49	2.93	3.29	3.39	3.19	2.78	2.34	1.93	1.49	0.94	0.40	0.24	0.48	0.97	1.38	1.63	1.83	2.01	2.14	2.26	2.45	2.61	2.86	3.36	4.02	4.47	4.60	4.35	3.81	3.23	2.76	2.47	2.39	2.44	2.46	2.45	2.31	2.06	2.00	2.22	2.59	3.23	3.95	4.39	4.51	4.42	4.29	4.08	3.89	3.77	3.55	3.12	2.63	2.38	2.57	2.75	2.63	2.54	2.76	2.99	2.94	2.69	2.43	2.30	2.26	2.22	2.20	2.15	2.05	2.00	2.00	1.97	1.94	1.97	1.99	2.00	1.96	1.90	1.71	1.18	0.82	0.87	1.20	1.38	1.41	1.53	1.78	2.15	2.69	3.56	4.67	5.54	5.75	5.09	3.70	3.06	2.79	2.47	2.13	1.77	1.59	1.60	1.83	2.40	2.58	2.51	2.51
4.64	4.30	3.73	3.36	3.17	3.05	2.90	2.72	2.58	2.42	2.24	2.08	2.04	2.06	2.11	2.14	2.07	2.13	2.39	2.71	2.78	2.52	2.06	1.59	1.26	1.02	0.76	0.47	0.31	0.54	1.14	1.64	1.90	2.07	2.22	2.38	2.54	2.66	2.77	2.95	3.29	3.82	4.37	4.63	4.43	3.90	3.28	2.85	2.62	2.54	2.60	2.72	2.69	2.59	2.39	2.20	2.27	2.58	2.98	3.72	4.32	4.55	4.42	4.18	4.05	4.01	4.02	4.04	3.84	3.53	3.31	3.25	3.29	3.15	2.92	3.01	3.33	3.46	3.20	2.77	2.38	2.19	2.13	2.15	2.18	2.15	2.06	2.00	2.00	2.02	1.98	1.96	1.98	1.97	1.88	1.74	1.48	1.18	1.15	1.38	1.66	1.79	1.89	2.03	2.30	2.77	3.56	4.64	5.58	5.88	5.39	4.09	2.87	2.49	2.32	2.03	1.79	1.61	1.48	1.40	1.60	1.99	2.11	2.08	2.08
4.68	4.41	3.85	3.48	3.31	3.17	3.00	2.78	2.55	2.35	2.16	2.01	1.92	1.85	1.83	1.98	1.89	2.02	2.23	2.23	1.90	1.39	0.94	0.66	0.58	0.63	0.60	0.52	0.62	1.15	1.75	2.05	2.20	2.32	2.46	2.64	2.75	2.80	2.90	3.16	3.59	4.10	4.48	4.46	4.00	3.33	2.88	2.65	2.60	2.68	2.77	2.88	2.92	2.79	2.61	2.48	2.50	2.74	3.21	3.97	4.36	4.19	3.74	3.45	3.42	3.58	3.77	3.93	4.05	4.11	4.16	4.11	3.91	3.66	3.51	3.64	3.77	3.57	3.07	2.48	2.09	1.97	1.97	2.04	2.10	2.12	2.07	1.97	1.90	1.97	2.06	2.10	2.09	2.00	1.85	1.73	1.58	1.52	1.62	1.85	2.04	2.21	2.43	2.68	3.05	3.60	4.41	5.32	5.79	5.46	4.29	3.00	2.27	2.05	1.87	1.57	1.35	1.45	1.48	1.36	1.37	1.52	1.82	2.06	2.06
4.91	4.49	3.82	3.48	3.37	3.30	3.11	2.83	2.55	2.38	2.30	2.19	2.07	1.92	1.82	1.81	1.82	1.89	1.85	1.48	0.95	0.56	0.33	0.30	0.46	0.64	0.69	0.79	1.10	1.53	1.90	2.03	2.10	2.20	2.37	2.56	2.61	2.66	2.85	3.24	3.76	4.23	4.42	4.15	3.63	3.10	2.77	2.62	2.60	2.66	2.78	2.91	3.00	2.88	2.70	2.51	2.44	2.62	3.19	3.95	4.15	3.71	3.17	2.91	2.92	3.14	3.41	3.61	3.84	4.09	4.25	4.25	4.09	3.98	3.99	3.97	3.71	3.15	2.50	2.04	1.87	1.83	1.82	1.88	2.02	2.09	2.04	1.92	1.79	1.80	1.97	2.13	2.13	1.98	1.87	1.85	1.86	1.95	2.17	2.38	2.53	2.76	3.03	3.34	3.76	4.27	4.85	5.37	5.33	4.34	3.19	2.48	2.13	1.98	1.82	1.45	1.23	1.40	1.55	1.61	1.74	1.81	2.24	2.64	2.64
4.92	4.41	3.69	3.40	3.30	3.24	3.05	2.76	2.50	2.34	2.27	2.21	2.09	1.96	1.89	1.82	1.74	1.62	1.30	0.82	0.48	0.23	0.11	0.28	0.48	0.81	1.10	1.32	1.52	1.71	1.85	1.87	1.85	1.90	2.02	2.17	2.30	2.46	2.80	3.32	3.86	4.24	4.21	3.77	3.25	2.84	2.57	2.50	2.53	2.56	2.66	2.89	2.92	2.72	2.51	2.28	2.18	2.37	3.09	3.84	3.90	3.33	2.82	2.70	2.83	3.02	3.12	3.12	3.22	3.40	3.53	3.60	3.67	3.79	3.84	3.68	3.17	2.55	2.16	1.99	1.88	1.70	1.63	1.79	2.01	2.06	2.00	1.90	1.75	1.64	1.67	1.81	1.87	1.86	1.88	1.95	2.02	2.15	2.36	2.54	2.71	2.91	3.18	3.57	4.04	4.45	4.79	4.88	4.48	3.59	2.99	2.71	2.54	2.42	2.23	1.84	1.54	1.53	1.60	1.82	2.10	2.33	2.68	2.95	2.95
4.51	4.21	3.77	3.51	3.26	2.97	2.69	2.50	2.30	2.13	2.02	1.97	1.91	1.84	1.82	1.75	1.56	1.30	0.99	1.03	0.58	0.67	0.73	0.83	1.03	1.36	1.65	1.86	1.96	1.97	1.97	1.94	1.86	1.81	1.87	2.03	2.26	2.49	2.88	3.40	3.87	4.05	3.76	3.10	2.47	2.18	2.14	2.22	2.33	2.47	2.60	2.79	2.76	2.41	2.15	2.00	1.95	2.24	2.99	3.69	3.73	3.17	2.77	2.74	2.89	2.97	2.84	2.63	2.58	2.66	2.63	2.68	2.92	3.22	3.27	3.08	2.75	2.45	2.29	2.15	1.81	1.51	1.59	1.95	2.16	2.14	2.03	1.89	1.75	1.66	1.55	1.49	1.55	1.69	1.85	1.99	2.04	2.10	2.20	2.34	2.50	2.72	3.08	3.56	3.95	4.21	4.35	4.24	3.93	3.62	3.33	3.05	2.82	2.63	2.39	2.07	1.83	1.68	1.58	1.64	1.85	2.15	2.57	2.82	2.82
4.10	4.12	4.00	3.71	3.26	2.78	2.47	2.31	2.11	1.92	1.79	1.72	1.72	1.74	1.73	1.66	1.46	1.22	1.34	1.00	1.15	1.27	1.42	1.56	1.74	1.97	2.20	2.33	2.39	2.37	2.31	2.19	2.04	1.96	2.03	2.21	2.43	2.67	3.02	3.47	3.78	3.71	3.15	2.34	1.94	1.95	2.10	2.26	2.41	2.53	2.62	2.69	2.55	2.13	1.89	1.87	1.93	2.28	2.96	3.57	3.66	3.30	2.97	2.85	2.82	2.65	2.39	2.18	2.18	2.27	2.23	2.23	2.46	2.73	2.66	2.57	2.59	2.62	2.53	2.19	1.71	1.62	2.02	2.46	2.60	2.49	2.30	2.07	1.89	1.81	1.70	1.59	1.58	1.72	1.88	1.98	2.03	2.09	2.19	2.33	2.53	2.81	3.13	3.41	3.63	3.75	3.73	3.68	3.77	3.73	3.30	2.81	2.48	2.23	1.95	1.71	1.73	1.77	1.76	1.82	1.95	2.14	2.52	2.83	2.83
4.19	4.31	4.27	3.88	3.37	2.81	2.47	2.25	2.00	1.74	1.55	1.47	1.50	1.59	1.63	1.59	1.46	1.33	1.33	1.42	1.67	1.91	2.13	2.30	2.44	2.55	2.63	2.67	2.66	2.58	2.46	2.33	2.23	2.22	2.32	2.50	2.71	2.93	3.25	3.57	3.64	3.33	2.66	2.08	2.02	2.28	2.58	2.80	2.86	2.78	2.66	2.60	2.41	2.04	1.84	1.86	1.95	2.29	2.92	3.53	3.71	3.47	3.05	2.72	2.46	2.20	2.00	1.92	2.04	2.15	2.10	2.13	2.33	2.48	2.34	2.35	2.52	2.68	2.69	2.50	2.26	2.42	2.88	3.19	3.16	2.88	2.52	2.25	2.15	2.14	2.12	2.09	2.08	2.08	2.07	2.06	2.06	2.11	2.21	2.35	2.53	2.68	2.80	2.94	3.10	3.14	3.08	3.41	3.95	3.87	3.18	2.62	2.29	1.98	1.66	1.55	1.71	1.91	2.24	2.58	2.77	2.88	2.96	2.96	2.96
4.54	4.55	4.31	3.81	3.28	2.79	2.44	2.16	1.86	1.55	1.30	1.18	1.19	1.32	1.49	1.53	1.45	1.43	1.54	1.85	2.16	2.46	2.69	2.85	2.92	2.96	2.96	2.92	2.82	2.67	2.48	2.36	2.36	2.50	2.72	2.92	3.11	3.33	3.59	3.73	3.58	3.13	2.60	2.43	2.71	3.10	3.38	3.44	3.28	2.91	2.65	2.50	2.36	2.04	1.87	1.88	1.95	2.31	2.96	3.64	3.84	3.51	2.93	2.46	2.10	1.88	1.83	1.89	2.02	2.12	2.03	2.03	2.23	2.35	2.25	2.31	2.46	2.64	2.84	3.09	3.32	3.49	3.66	3.67	3.39	2.82	2.32	2.12	2.20	2.38	2.51	2.56	2.55	2.45	2.36	2.26	2.14	2.03	1.93	1.92	2.01	2.02	2.11	2.34	2.55	2.57	2.78	3.63	4.34	4.08	3.27	2.76	2.47	2.22	1.98	1.84	1.90	2.06	2.41	2.72	2.95	3.08	2.91	2.70	2.70
4.89	4.66	4.02	3.39	2.86	2.45	2.19	1.93	1.61	1.30	1.11	1.00	0.93	1.03	1.27	1.42	1.38	1.45	1.69	2.01	2.33	2.58	2.74	2.83	2.89	2.95	2.98	2.96	2.91	2.79	2.60	2.47	2.52	2.73	2.98	3.23	3.47	3.73	3.94	3.99	3.80	3.39	3.14	3.20	3.52	3.79	3.82	3.56	3.16	2.78	2.53	2.43	2.31	2.05	1.87	1.88	1.99	2.41	3.13	3.80	3.90	3.47	2.83	2.34	2.00	1.83	1.83	1.92	2.03	2.10	1.97	1.87	2.08	2.31	2.28	2.31	2.44	2.62	2.95	3.37	3.74	3.85	3.76	3.48	2.91	2.29	2.05	2.23	2.59	2.82	2.87	2.82	2.78	2.73	2.62	2.42	2.20	1.97	1.72	1.53	1.44	1.45	1.67	2.05	2.30	2.48	3.12	4.28	4.73	4.23	3.35	2.81	2.52	2.35	2.18	2.03	1.96	1.89	1.91	1.94	2.14	2.30	2.21	2.16	2.16
5.17	4.66	3.59	2.83	2.34	2.06	1.85	1.57	1.26	1.07	1.27	0.99	0.87	0.78	1.17	1.22	1.29	1.26	1.59	1.83	2.02	2.11	2.15	2.23	2.37	2.55	2.69	2.81	2.88	2.85	2.77	2.73	2.80	2.94	3.17	3.49	3.80	4.02	4.20	4.30	4.16	3.82	3.61	3.65	3.81	3.82	3.51	3.01	2.62	2.38	2.31	2.33	2.26	2.03	1.87	1.93	2.10	2.56	3.27	3.82	3.83	3.26	2.62	2.20	1.92	1.78	1.74	1.81	1.97	2.06	1.88	1.74	1.97	2.35	2.37	2.31	2.38	2.60	2.93	3.19	3.33	3.33	3.17	2.80	2.32	2.12	2.42	3.11	3.60	3.73	3.64	3.51	3.36	3.06	2.74	2.44	2.21	2.05	1.86	1.69	1.55	1.55	1.83	2.24	2.56	3.04	3.94	4.80	4.89	4.15	3.19	2.60	2.31	2.14	2.00	1.94	1.93	1.77	1.63	1.58	1.63	1.70	1.92	2.11	2.11
5.26	4.54	3.20	2.38	1.97	1.79	1.59	1.29	1.12	1.14	1.24	1.23	1.02	1.21	1.19	1.05	1.17	1.39	1.37	1.46	1.47	1.51	1.61	1.77	2.05	2.38	2.59	2.75	2.86	2.87	2.90	2.97	3.07	3.27	3.64	4.06	4.28	4.36	4.44	4.49	4.34	3.96	3.68	3.57	3.52	3.37	3.04	2.69	2.43	2.28	2.28	2.34	2.30	2.06	1.92	2.00	2.25	2.71	3.21	3.57	3.49	2.90	2.23	1.86	1.64	1.52	1.50	1.63	1.86	2.01	1.84	1.70	1.98	2.42	2.45	2.29	2.27	2.49	2.81	2.85	2.62	2.54	2.53	2.46	2.47	2.77	3.52	4.16	4.38	4.35	4.24	4.07	3.75	3.19	2.71	2.41	2.18	2.05	1.99	2.02	2.12	2.31	2.64	3.14	3.59	4.01	4.52	4.91	4.74	3.93	2.96	2.43	2.16	1.96	1.83	1.85	1.94	1.94	1.98	2.01	2.00	2.02	2.30	2.56	2.56
5.10	4.33	2.96	2.17	1.88	1.75	1.59	1.39	1.36	1.51	1.65	1.63	1.38	1.13	1.52	1.32	1.16	1.39	1.35	1.22	1.24	1.43	1.65	1.90	2.22	2.47	2.63	2.74	2.80	2.87	3.00	3.19	3.46	3.88	4.36	4.71	4.81	4.75	4.62	4.41	4.14	3.69	3.37	3.22	3.11	3.06	2.95	2.86	2.75	2.71	2.65	2.55	2.39	2.10	1.92	1.98	2.24	2.60	2.87	3.10	3.07	2.58	1.93	1.64	1.51	1.41	1.44	1.60	1.80	1.93	1.85	1.79	2.11	2.52	2.53	2.25	2.15	2.38	2.74	2.65	2.25	2.13	2.24	2.49	2.89	3.54	4.17	4.45	4.33	4.13	3.96	3.72	3.39	3.02	2.65	2.36	2.06	1.85	1.80	2.02	2.47	3.03	3.62	4.09	4.29	4.35	4.51	4.65	4.37	3.64	2.90	2.48	2.30	2.14	1.92	1.86	1.93	2.03	2.24	2.49	2.74	2.87	2.85	2.85	2.85
4.77	4.11	2.93	2.26	2.05	1.95	1.82	1.70	1.75	1.92	2.01	1.88	1.60	1.44	1.34	1.34	1.42	1.48	1.46	1.43	1.59	1.86	2.09	2.27	2.42	2.55	2.59	2.63	2.74	2.88	3.15	3.50	3.98	4.47	4.83	5.02	5.00	4.78	4.48	4.09	3.66	3.28	2.98	2.80	2.80	2.79	2.81	2.86	2.93	2.99	2.95	2.70	2.38	2.05	1.81	1.82	2.01	2.19	2.31	2.61	2.73	2.36	1.81	1.60	1.59	1.59	1.62	1.68	1.76	1.85	1.90	1.97	2.25	2.58	2.53	2.14	2.04	2.43	2.79	2.58	2.15	2.02	2.13	2.56	3.21	3.76	4.09	4.06	3.78	3.49	3.21	2.90	2.66	2.53	2.42	2.19	1.88	1.67	1.67	2.01	2.76	3.48	3.90	4.05	3.95	3.79	4.04	4.29	4.08	3.50	2.87	2.52	2.35	2.18	1.96	1.90	1.94	2.01	2.25	2.63	2.94	3.00	2.79	2.63	2.63
4.49	3.98	3.04	2.49	2.29	2.16	2.02	1.99	2.11	2.24	2.19	1.92	1.61	1.53	1.54	1.63	1.70	1.76	1.84	1.99	2.22	2.48	2.64	2.72	2.76	2.75	2.72	2.73	2.86	3.04	3.42	3.93	4.48	4.82	4.87	4.77	4.60	4.29	3.89	3.47	3.09	2.79	2.51	2.39	2.47	2.56	2.60	2.60	2.65	2.67	2.59	2.40	2.19	1.92	1.75	1.77	1.90	1.93	1.98	2.35	2.57	2.35	2.00	1.91	1.92	1.84	1.76	1.75	1.82	1.88	1.91	2.01	2.27	2.51	2.41	2.01	2.01	2.51	2.82	2.52	2.09	2.06	2.34	2.84	3.33	3.61	3.68	3.59	3.37	3.11	2.82	2.53	2.26	2.10	2.06	1.95	1.76	1.65	1.74	2.16	2.80	3.21	3.20	3.08	2.96	2.97	3.68	4.27	4.13	3.55	2.93	2.56	2.32	2.10	1.97	1.96	1.98	2.02	2.21	2.40	2.42	2.18	2.16	2.19	2.19
4.33	3.89	3.10	2.65	2.45	2.35	2.32	2.39	2.49	2.47	2.27	1.93	1.70	1.90	1.63	1.76	1.89	2.04	2.22	2.45	2.74	2.98	3.07	3.05	3.01	2.94	2.91	2.95	3.10	3.30	3.79	4.39	4.75	4.75	4.48	4.19	3.93	3.64	3.28	2.94	2.63	2.34	2.06	1.93	2.14	2.44	2.47	2.27	2.09	1.90	1.74	1.72	1.77	1.79	1.81	1.95	2.07	2.10	2.17	2.40	2.60	2.57	2.47	2.40	2.14	1.88	1.87	1.98	1.99	1.84	1.71	1.80	2.12	2.38	2.36	2.14	2.19	2.60	2.78	2.43	2.10	2.26	2.68	2.99	3.19	3.35	3.32	3.09	2.90	2.74	2.55	2.36	2.17	2.02	1.93	1.80	1.66	1.59	1.63	1.87	2.21	2.47	2.42	2.42	2.48	2.83	3.90	4.66	4.44	3.74	3.17	2.83	2.57	2.32	2.10	2.02	2.02	2.00	1.97	1.81	1.57	1.52	1.86	2.16	2.16
4.24	3.86	3.20	2.86	2.76	2.78	2.84	2.87	2.81	2.61	2.28	1.97	1.83	1.85	1.72	1.88	2.07	2.25	2.45	2.71	2.97	3.10	3.08	2.98	2.90	2.87	2.91	3.03	3.28	3.64	4.26	4.71	4.72	4.31	3.89	3.66	3.47	3.24	2.88	2.52	2.19	1.87	1.61	1.50	1.84	2.34	2.31	1.94	1.64	1.49	1.42	1.36	1.42	1.63	1.89	2.18	2.34	2.38	2.39	2.45	2.65	2.79	2.70	2.41	2.05	1.99	2.15	2.13	1.83	1.46	1.43	1.67	1.99	2.24	2.33	2.36	2.53	2.77	2.80	2.49	2.24	2.42	2.70	2.85	3.02	3.17	3.02	2.63	2.33	2.07	1.87	1.77	1.83	1.93	1.92	1.76	1.62	1.50	1.52	1.71	1.98	2.19	2.29	2.45	2.73	3.44	4.62	5.15	4.69	3.78	3.20	2.91	2.65	2.36	2.06	1.97	2.03	2.02	1.91	1.70	1.56	1.76	2.30	2.68	2.68
4.25	3.95	3.44	3.20	3.16	3.16	3.12	3.02	2.83	2.55	2.21	2.01	1.94	1.87	2.02	2.22	2.36	2.50	2.66	2.80	2.86	2.82	2.73	2.63	2.65	2.75	2.86	3.09	3.52	4.08	4.65	4.75	4.37	3.76	3.39	3.28	3.10	2.85	2.50	2.12	1.72	1.34	1.12	1.14	1.63	2.23	2.26	1.93	1.69	1.59	1.51	1.39	1.39	1.66	2.06	2.36	2.40	2.32	2.25	2.32	2.59	2.82	2.67	2.35	2.24	2.33	2.23	1.79	1.36	1.28	1.50	1.86	2.11	2.26	2.42	2.64	2.89	2.99	3.10	2.67	2.47	2.47	2.61	2.78	2.99	3.03	2.77	2.40	2.06	1.72	1.46	1.34	1.44	1.69	1.78	1.72	1.63	1.56	1.71	1.98	2.21	2.40	2.59	2.84	3.34	4.37	5.32	5.40	4.57	3.48	2.94	2.67	2.43	2.21	2.02	2.00	2.10	2.11	2.07	2.09	2.24	2.51	2.85	3.06	3.06
4.41	4.12	3.65	3.41	3.30	3.16	2.95	2.74	2.51	2.25	2.03	1.94	1.91	2.04	2.32	2.49	2.58	2.67	2.72	2.69	2.62	2.53	2.44	2.42	2.54	2.71	2.92	3.31	3.91	4.47	4.70	4.47	3.96	3.43	3.07	2.88	2.64	2.38	2.10	1.74	1.29	0.93	0.84	1.09	1.66	2.26	2.44	2.19	1.89	1.61	1.39	1.40	1.68	2.08	2.42	2.48	2.34	2.20	2.15	2.26	2.54	2.81	2.72	2.52	2.43	2.26	1.77	1.41	1.40	1.68	2.05	2.30	2.44	2.55	2.75	3.02	3.20	3.18	3.08	2.95	3.27	2.66	2.72	2.92	3.03	2.92	2.65	2.36	2.16	2.04	1.89	1.63	1.56	1.64	1.68	1.68	1.69	1.78	2.00	2.27	2.54	2.80	3.08	3.38	4.00	5.08	5.72	5.29	4.11	3.22	2.81	2.51	2.29	2.24	2.25	2.24	2.19	2.06	2.00	2.17	2.51	2.91	3.01	2.94	2.94
4.62	4.28	3.71	3.37	3.14	2.88	2.60	2.32	2.04	1.82	1.78	1.78	1.99	1.93	2.23	2.36	2.47	2.54	2.53	2.47	2.42	2.36	2.33	2.36	2.49	2.70	3.00	3.55	4.22	4.57	4.40	3.98	3.69	3.29	2.79	2.48	2.23	2.00	1.76	1.46	1.07	0.85	0.95	1.35	1.83	2.39	2.61	2.22	1.60	1.23	1.26	1.68	2.35	2.83	2.89	2.70	2.48	2.33	2.27	2.31	2.53	2.82	2.80	2.57	2.29	1.95	1.72	1.79	2.16	2.57	2.84	2.95	3.02	3.11	3.27	3.46	3.56	3.49	3.43	3.34	3.06	2.90	2.97	3.09	3.05	2.88	2.66	2.45	2.32	2.28	2.17	1.97	1.87	1.78	1.76	1.80	1.97	2.34	2.64	2.78	2.94	3.20	3.58	4.02	4.75	5.69	5.82	4.91	3.73	3.14	2.80	2.47	2.25	2.24	2.33	2.27	2.07	1.80	1.69	1.91	2.34	2.75	2.71	2.55	2.55
4.74	4.38	3.67	3.21	2.89	2.57	2.28	1.99	1.72	1.53	1.59	1.64	1.60	1.76	1.94	2.03	2.17	2.27	2.30	2.29	2.24	2.21	2.22	2.27	2.39	2.64	3.02	3.69	4.41	4.52	4.07	3.66	3.53	3.18	2.53	2.09	1.90	1.72	1.45	1.12	0.93	0.85	1.07	1.42	1.78	2.31	2.52	1.99	1.38	1.30	1.78	2.70	3.47	3.62	3.37	3.00	2.71	2.48	2.38	2.42	2.62	2.87	2.89	2.68	2.53	2.56	2.85	3.22	3.55	3.80	3.90	3.95	3.99	4.03	4.11	4.21	4.23	4.11	3.92	3.62	3.19	2.98	3.06	3.11	3.01	2.82	2.62	2.45	2.27	2.05	1.85	1.86	1.89	1.85	1.95	2.18	2.54	2.96	3.20	3.27	3.33	3.61	4.14	4.81	5.53	5.89	5.52	4.34	3.41	3.00	2.62	2.31	2.14	2.09	2.06	1.92	1.76	1.55	1.42	1.62	1.99	2.22	2.25	2.27	2.27
4.77	4.40	3.57	3.04	2.71	2.40	2.12	1.87	1.64	1.51	1.62	1.68	1.79	1.86	1.98	2.04	2.14	2.19	2.20	2.14	2.07	2.05	2.08	2.15	2.30	2.57	3.05	3.88	4.60	4.47	3.87	3.55	3.43	3.03	2.37	1.90	1.68	1.41	1.01	0.69	0.69	0.74	1.00	1.29	1.66	2.22	2.46	2.08	1.74	2.07	3.06	4.04	4.36	4.07	3.56	3.10	2.76	2.54	2.50	2.62	2.82	3.03	3.09	3.17	3.39	3.77	4.20	4.56	4.79	4.90	4.95	4.99	5.02	5.04	5.04	5.00	4.89	4.69	4.30	3.77	3.28	3.02	3.02	2.97	2.83	2.63	2.42	2.28	2.01	1.62	1.51	1.68	1.72	1.78	2.05	2.41	2.73	2.89	2.94	2.98	3.25	3.86	4.68	5.49	5.91	5.65	4.83	3.77	3.11	2.71	2.31	2.04	1.94	1.88	1.75	1.64	1.57	1.39	1.23	1.36	1.65	1.97	2.38	2.71	2.71
4.86	4.40	3.48	2.93	2.63	2.33	2.08	1.91	1.75	1.72	1.86	1.97	2.17	2.29	2.30	2.31	2.29	2.22	2.11	1.99	1.94	1.95	1.99	2.07	2.25	2.59	3.23	4.20	4.74	4.34	3.59	3.41	3.27	2.84	2.36	1.97	1.60	1.14	0.68	0.55	0.67	0.89	1.22	1.54	1.92	2.40	2.73	2.70	2.76	3.45	4.41	4.81	4.57	3.89	3.34	2.94	2.67	2.52	2.50	2.58	2.77	3.06	3.28	3.56	3.95	4.31	4.57	4.76	4.87	4.95	5.00	5.07	5.12	5.14	5.09	4.94	4.75	4.53	4.21	3.83	3.49	3.24	3.02	2.84	2.67	2.43	2.21	2.03	1.63	1.22	1.33	1.50	1.50	1.51	1.61	1.78	1.92	1.97	2.00	2.15	2.76	3.85	5.03	5.67	5.61	4.88	4.06	3.35	2.88	2.52	2.22	1.98	1.83	1.67	1.48	1.44	1.43	1.26	1.09	1.21	1.58	2.16	2.93	3.33	3.33
4.96	4.42	3.42	2.88	2.57	2.27	2.04	1.93	1.85	1.89	2.06	2.29	2.50	2.55	2.48	2.36	2.22	2.08	1.95	1.87	1.86	1.90	1.94	2.04	2.26	2.71	3.47	4.41	4.68	3.99	3.26	3.15	3.02	2.70	2.38	2.02	1.56	1.17	0.92	0.94	1.20	1.57	1.94	2.24	2.58	3.06	3.60	3.95	4.32	4.80	5.05	4.84	4.16	3.39	2.94	2.67	2.43	2.27	2.19	2.21	2.44	2.83	3.31	3.64	3.89	3.97	3.90	3.82	3.77	3.84	3.95	4.09	4.14	4.13	4.03	3.85	3.73	3.58	3.45	3.36	3.30	3.25	3.13	2.86	2.62	2.30	2.02	1.74	1.23	0.99	1.20	1.33	1.33	1.23	1.13	1.14	1.26	1.49	1.80	2.21	3.04	4.29	5.27	5.37	4.61	3.65	3.19	2.89	2.62	2.42	2.24	2.01	1.75	1.46	1.20	1.25	1.27	1.17	1.19	1.43	1.84	2.52	3.36	3.79	3.79
4.94	4.35	3.33	2.77	2.43	2.17	2.00	1.89	1.85	1.92	2.04	2.32	2.50	2.47	2.31	2.10	1.89	1.77	1.71	1.67	1.69	1.77	1.87	2.06	2.38	2.87	3.63	4.40	4.44	3.65	3.04	2.95	2.80	2.58	2.34	1.86	1.48	1.38	1.37	1.59	1.92	2.29	2.63	2.97	3.47	4.17	4.80	5.07	5.12	5.05	4.80	4.25	3.58	2.96	2.63	2.42	2.16	1.94	1.88	1.98	2.28	2.72	3.25	3.61	3.61	3.31	3.01	2.77	2.71	2.78	2.87	2.94	2.93	2.83	2.74	2.59	2.53	2.44	2.38	2.41	2.56	2.71	2.75	2.75	2.46	2.96	1.81	1.42	0.90	0.90	1.15	1.34	1.40	1.34	1.33	1.52	1.78	2.19	2.81	3.57	4.46	5.02	5.06	4.60	3.60	2.82	2.61	2.50	2.29	2.10	1.94	1.73	1.53	1.27	1.06	1.18	1.11	1.05	1.29	1.66	2.13	2.78	3.67	4.18	4.18
4.76	4.20	3.23	2.64	2.28	2.06	1.97	1.84	1.79	1.89	2.40	2.09	2.11	1.99	1.80	1.61	1.47	1.42	1.39	1.39	1.48	1.65	1.88	2.22	2.61	3.06	3.70	4.28	4.24	3.61	3.10	2.93	2.75	2.54	2.20	1.61	1.39	1.41	1.57	1.89	2.25	2.61	2.97	3.46	4.24	5.04	5.43	5.35	4.90	4.41	3.97	3.51	3.05	2.67	2.46	2.31	2.07	1.89	1.94	2.15	2.45	2.78	3.19	3.48	3.36	2.96	2.65	2.54	2.57	2.60	2.52	2.37	2.25	2.13	1.98	1.86	1.84	1.79	1.68	1.61	1.66	1.76	1.80	1.87	1.91	2.59	1.60	1.20	0.88	1.01	1.33	1.58	1.71	1.85	2.15	2.53	2.97	3.54	4.27	4.81	4.93	4.72	4.30	3.72	3.04	2.60	2.40	2.25	2.06	1.82	1.54	1.35	1.27	1.09	1.04	1.18	1.09	1.02	1.19	1.54	2.17	2.87	3.78	4.34	4.34
4.52	4.05	3.20	2.65	2.28	2.00	1.85	1.68	1.58	1.68	1.64	1.79	1.49	1.30	1.15	1.09	1.10	1.10	1.11	1.23	1.50	1.78	2.11	2.49	2.84	3.24	3.76	4.20	4.21	3.83	3.34	2.99	2.71	2.43	1.95	1.35	1.25	1.33	1.53	1.81	2.19	2.61	3.09	3.85	4.82	5.40	5.37	4.75	3.92	3.46	3.17	2.92	2.68	2.48	2.38	2.28	2.08	1.99	2.15	2.37	2.55	2.70	2.95	3.21	3.20	2.97	2.77	2.69	2.62	2.45	2.21	2.00	1.93	1.84	1.64	1.53	1.58	1.53	1.34	1.20	1.24	1.37	1.47	1.53	1.54	1.56	1.48	1.29	1.24	1.41	1.64	1.87	2.14	2.53	2.87	3.28	3.84	4.47	4.78	4.62	4.07	3.55	3.31	3.08	2.93	2.70	2.35	2.12	2.04	1.92	1.65	1.37	1.23	1.15	1.15	1.20	1.27	1.44	1.59	1.81	2.21	2.83	3.79	4.33	4.33
4.35	3.99	3.30	2.79	2.37	1.97	1.67	1.44	1.28	1.34	1.31	1.62	0.96	0.82	0.78	1.01	0.88	0.96	1.09	1.37	1.75	2.12	2.46	2.77	3.06	3.41	3.83	4.21	4.30	4.00	3.40	2.88	2.54	2.20	1.72	1.24	1.24	1.39	1.57	1.80	2.15	2.64	3.31	4.33	5.22	5.40	4.83	3.89	3.20	2.87	2.66	2.48	2.34	2.27	2.25	2.17	1.99	1.96	2.13	2.23	2.23	2.24	2.49	2.92	3.21	3.21	3.01	2.76	2.41	2.03	1.74	1.69	1.74	1.66	1.47	1.43	1.52	1.49	1.34	1.24	2.03	1.59	1.90	1.97	2.44	1.66	1.54	1.54	1.64	1.75	1.84	2.04	2.37	2.71	3.12	3.73	4.30	4.47	4.11	3.34	2.73	2.52	2.52	2.72	3.01	2.99	2.71	2.60	2.65	2.57	2.23	1.78	1.49	1.45	1.42	1.38	1.57	1.93	2.25	2.44	2.60	3.00	3.82	4.32	4.32
4.35	4.08	3.50	2.96	2.47	2.03	1.69	1.46	1.27	1.26	1.21	1.70	1.41	0.84	0.88	0.94	1.05	1.22	1.48	1.80	2.17	2.52	2.81	3.06	3.35	3.65	3.96	4.27	4.37	4.03	3.31	2.84	2.58	2.26	1.82	1.53	1.58	1.76	1.89	2.08	2.42	2.94	3.78	4.86	5.37	5.06	4.09	3.20	2.67	2.41	2.26	2.10	2.00	2.01	2.02	1.93	1.77	1.73	1.79	1.72	1.64	1.70	2.10	2.83	3.44	3.49	3.06	2.51	2.02	1.70	1.61	1.67	1.66	1.45	1.24	1.41	1.65	1.80	1.36	1.42	1.71	2.27	2.76	2.70	2.58	1.97	1.79	1.79	1.86	1.90	1.96	2.11	2.38	2.77	3.43	4.05	4.13	3.65	2.78	2.09	1.83	1.86	2.11	2.74	3.39	3.60	3.59	3.59	3.51	3.26	2.83	2.27	1.83	1.75	1.71	1.69	1.80	2.15	2.70	3.22	3.55	3.80	4.05	4.13	4.13
4.54	4.25	3.57	2.98	2.50	2.14	1.93	1.77	1.58	1.48	2.27	1.24	1.17	1.21	1.33	1.48	1.65	1.90	2.15	2.39	2.68	2.97	3.20	3.46	3.74	3.94	4.07	4.33	4.47	4.17	3.61	3.23	2.99	2.65	2.25	2.07	2.10	2.23	2.37	2.56	2.87	3.38	4.27	5.15	5.24	4.42	3.39	2.63	2.19	2.01	1.92	1.75	1.65	1.76	1.84	1.71	1.55	1.44	1.38	1.36	1.46	1.70	2.21	3.07	3.70	3.55	2.81	2.15	1.82	1.78	1.91	1.93	1.63	1.22	1.03	1.15	1.35	1.44	1.61	2.06	2.75	3.42	3.55	3.22	2.48	2.15	1.99	1.93	1.95	2.00	2.09	2.26	2.60	3.18	3.78	3.83	3.21	2.37	1.60	1.33	1.41	1.69	2.29	3.27	4.07	4.34	4.16	3.83	3.47	3.09	2.65	2.20	1.96	1.94	2.01	2.12	2.33	2.78	3.46	4.13	4.44	4.41	3.92	3.57	3.57
4.79	4.33	3.40	2.79	2.40	2.21	2.13	1.98	1.78	1.61	1.45	1.40	1.47	1.65	1.90	2.15	2.42	2.68	2.89	3.05	3.24	3.41	3.60	3.84	4.03	4.04	4.10	4.41	4.59	4.28	3.78	3.41	3.10	2.74	2.44	2.29	2.29	2.42	2.61	2.85	3.16	3.68	4.51	5.05	4.73	3.67	2.74	2.14	1.78	1.66	1.61	1.37	1.26	1.58	1.73	1.61	1.50	1.42	1.45	1.64	1.92	2.27	2.77	3.46	3.78	3.40	2.58	2.13	2.12	2.29	2.32	1.99	1.41	1.04	1.10	1.41	1.71	2.00	2.50	3.24	3.93	4.10	3.70	2.90	2.35	2.10	2.00	1.95	1.98	2.08	2.23	2.46	2.89	3.41	3.53	2.90	1.94	1.32	1.14	1.28	1.65	2.21	3.04	3.92	4.58	4.59	3.89	3.12	2.71	2.42	2.12	1.97	2.00	2.09	2.28	2.62	3.19	3.84	4.35	4.51	4.35	3.88	3.12	2.62	2.62
4.96	4.30	3.16	2.53	2.22	2.10	2.04	1.91	1.74	1.57	2.67	1.36	1.56	1.82	2.19	2.50	2.79	3.04	3.24	3.36	3.45	3.58	3.80	3.99	3.99	3.88	4.04	4.48	4.56	4.07	3.41	2.95	2.60	2.36	2.28	2.25	2.29	2.44	2.64	2.90	3.24	3.73	4.37	4.61	4.02	2.94	2.19	1.76	1.50	1.44	1.34	1.03	0.98	1.43	1.66	1.66	1.67	1.71	1.90	2.15	2.47	2.89	3.40	3.83	3.77	3.29	2.69	2.57	2.76	2.78	2.39	1.75	1.28	1.33	1.75	2.18	2.63	3.13	3.76	4.32	4.44	4.03	3.27	2.54	2.15	1.97	1.91	1.92	2.02	2.17	2.34	2.59	2.98	3.20	2.74	1.84	1.34	1.30	1.58	2.06	2.56	3.16	3.81	4.34	4.57	4.25	3.28	2.45	2.04	1.79	1.63	1.76	2.00	2.13	2.42	3.02	3.73	4.14	4.18	3.86	3.33	2.61	2.15	2.02	2.02
4.99	4.28	3.00	2.30	1.96	1.74	1.63	1.56	1.56	1.47	1.22	1.20	1.38	1.67	1.96	2.21	2.46	2.64	2.76	2.84	3.00	3.31	3.61	3.66	3.48	3.47	3.95	4.49	4.39	3.75	3.11	2.64	2.30	2.14	2.24	2.35	2.47	2.62	2.74	2.87	3.10	3.45	3.95	4.09	3.52	2.49	1.84	1.60	1.52	1.46	1.31	1.05	1.01	1.41	1.68	1.83	1.96	2.12	2.34	2.55	2.91	3.48	4.01	4.18	3.84	3.33	3.04	3.11	3.19	2.96	2.39	1.91	1.88	2.41	3.02	3.52	4.01	4.43	4.69	4.66	4.23	3.50	2.81	2.28	2.41	1.86	1.80	1.84	2.02	2.22	2.39	2.63	2.91	2.78	2.07	1.61	1.67	2.06	2.52	2.97	3.43	3.85	4.13	4.26	4.19	3.78	2.91	2.16	1.78	1.56	1.43	1.58	1.87	2.07	2.50	3.18	3.59	3.48	2.98	2.54	2.10	1.66	1.71	1.88	1.88
4.96	4.18	2.78	2.06	1.66	1.35	1.17	1.12	1.28	1.26	0.95	0.86	0.96	1.13	1.34	1.51	1.67	1.74	1.73	1.85	2.29	2.83	3.07	2.90	2.65	3.01	3.95	4.53	4.27	3.57	3.10	2.84	2.65	2.52	2.50	2.54	2.58	2.64	2.65	2.63	2.70	2.99	3.55	3.81	3.35	2.40	1.88	1.84	1.87	1.80	1.69	1.57	1.52	1.68	1.80	1.95	2.17	2.46	2.77	3.17	3.70	4.25	4.47	4.27	3.77	3.32	3.28	3.49	3.52	3.25	2.98	2.95	3.35	3.90	4.31	4.64	4.88	4.94	4.74	4.27	3.65	3.02	2.52	2.11	1.87	1.76	1.69	1.74	1.96	2.18	2.37	2.59	2.69	2.36	1.94	2.00	2.42	2.80	3.13	3.45	3.73	3.82	3.73	3.65	3.74	3.53	2.81	2.14	1.88	1.73	1.60	1.61	1.78	2.02	2.48	2.83	2.71	2.22	1.66	1.39	1.23	1.33	1.87	2.26	2.26
4.78	3.94	2.57	1.84	1.44	1.16	0.94	0.87	1.08	1.06	0.75	0.57	0.57	0.66	0.80	0.95	1.06	1.14	1.32	1.64	2.11	2.54	2.59	2.32	2.27	2.98	4.19	4.69	4.25	3.38	2.96	2.84	2.80	2.78	2.69	2.52	2.37	2.31	2.23	2.16	2.25	2.73	3.47	3.87	3.54	2.86	2.50	2.50	2.52	2.44	2.34	2.20	2.04	1.99	1.91	1.98	2.20	2.58	3.14	3.82	4.36	4.55	4.34	3.80	3.23	3.06	3.37	3.65	3.66	3.54	3.62	3.92	4.30	4.56	4.70	4.78	4.74	4.47	4.01	3.53	3.07	2.60	2.22	2.12	1.71	1.62	1.60	1.71	1.96	2.17	2.34	2.47	2.41	2.10	2.06	2.40	2.76	2.99	3.22	3.37	3.37	3.14	2.85	2.98	3.40	3.35	2.64	1.95	1.72	1.61	1.53	1.56	1.70	1.89	2.09	1.93	1.46	1.07	0.89	0.92	1.09	1.58	2.50	3.06	3.06
4.46	3.73	2.46	1.73	1.34	1.11	0.93	0.90	1.04	0.99	0.79	0.61	0.54	0.59	0.68	0.81	0.65	1.11	1.50	1.93	2.30	2.51	2.44	2.26	2.46	3.39	4.58	4.87	4.20	3.15	2.67	2.50	2.45	2.49	2.45	2.22	1.94	1.81	1.79	1.85	2.11	2.81	3.75	4.17	3.88	3.35	3.11	3.04	2.99	2.84	2.57	2.29	2.14	2.12	2.04	2.10	2.33	2.81	3.51	4.12	4.30	4.05	3.57	2.93	2.64	2.90	3.47	3.69	3.49	3.39	3.60	3.91	4.11	4.15	4.12	4.03	3.80	3.40	3.03	2.70	2.36	2.03	1.75	1.53	1.84	2.04	1.45	1.66	1.96	2.17	2.28	2.33	2.20	2.04	2.18	2.48	2.67	2.79	2.86	2.80	2.59	2.27	2.14	2.56	3.14	3.13	2.39	1.67	1.40	1.36	1.38	1.51	1.67	1.72	1.58	1.22	0.96	0.88	0.93	1.11	1.46	2.10	3.14	3.77	3.77
4.20	3.62	2.52	1.80	1.41	1.19	1.08	1.12	1.07	0.99	0.94	0.88	0.88	0.90	0.91	0.98	0.84	1.42	1.92	2.29	2.52	2.64	2.60	2.57	2.96	3.97	4.88	4.92	4.06	2.94	2.41	2.19	2.04	1.94	1.97	1.94	1.80	1.73	1.79	2.01	2.48	3.33	4.19	4.43	4.00	3.42	3.18	3.15	3.04	2.75	2.37	2.11	2.08	2.15	2.16	2.28	2.57	3.14	3.76	3.98	3.64	3.09	2.63	2.26	2.38	2.99	3.62	3.65	3.18	3.00	3.14	3.28	3.29	3.27	3.22	3.07	2.78	2.40	2.07	1.84	1.58	1.34	1.12	0.94	0.89	1.92	1.28	1.61	1.92	2.09	2.16	2.19	2.08	2.00	2.12	2.30	2.37	2.32	2.13	1.88	1.67	1.60	1.82	2.37	2.90	2.90	2.38	1.85	1.73	1.85	1.94	1.91	1.88	1.76	1.57	1.43	1.42	1.47	1.62	1.83	2.15	2.65	3.53	4.11	4.11
4.06	3.53	2.54	1.91	1.55	1.32	1.29	1.34	1.25	1.21	1.25	1.36	1.45	1.45	1.43	1.47	1.59	1.84	2.20	2.52	2.72	2.91	3.07	3.21	3.65	4.50	5.09	4.91	4.00	2.90	2.32	2.05	1.80	1.62	1.75	1.98	2.13	2.27	2.42	2.67	3.14	3.85	4.43	4.45	3.87	3.27	3.08	3.03	2.82	2.52	2.27	2.14	2.16	2.22	2.23	2.38	2.73	3.29	3.71	3.51	2.88	2.41	2.09	1.97	2.29	3.02	3.68	3.56	2.95	2.71	2.73	2.69	2.62	2.58	2.48	2.32	2.01	1.61	1.28	1.11	0.95	0.70	0.51	0.37	0.40	0.76	1.28	1.71	1.97	2.08	2.15	2.16	2.03	1.92	1.93	1.97	1.89	1.61	1.34	1.18	1.23	1.49	1.95	2.42	2.75	2.79	2.65	2.62	2.77	2.81	2.60	2.28	2.09	2.00	1.97	2.03	2.10	2.14	2.20	2.36	2.65	3.05	3.68	4.09	4.09
3.98	3.45	2.49	1.87	1.55	1.41	1.48	1.50	1.52	1.63	1.78	1.92	1.94	1.89	1.87	1.94	2.06	2.19	2.40	2.70	2.98	3.32	3.64	3.91	4.32	4.97	5.32	4.94	4.03	3.07	2.54	2.24	2.01	1.90	2.04	2.30	2.56	2.81	2.98	3.16	3.47	3.95	4.33	4.25	3.71	3.16	2.96	2.78	2.45	2.22	2.16	2.17	2.21	2.29	2.31	2.53	2.95	3.39	3.43	2.90	2.26	1.99	1.79	1.79	2.21	3.10	3.72	3.47	2.80	2.51	2.40	2.26	2.17	2.09	1.92	1.72	1.41	0.99	0.77	0.82	0.81	0.68	0.63	0.57	0.61	1.03	1.57	1.94	2.12	2.23	2.30	2.27	2.11	1.91	1.79	1.68	1.45	1.19	1.10	1.18	1.44	1.84	2.21	2.47	2.67	2.87	3.14	3.44	3.43	3.08	2.56	2.21	2.14	2.16	2.18	2.24	2.29	2.30	2.32	2.47	2.72	3.10	3.63	3.90	3.90
3.93	3.39	2.39	1.76	1.44	1.41	1.49	1.49	1.81	1.90	2.11	2.22	2.23	2.25	2.30	2.38	2.47	2.55	2.68	2.95	3.27	3.66	3.95	4.29	4.82	5.38	5.44	4.89	3.96	3.21	2.82	2.65	2.55	2.47	2.47	2.52	2.61	2.73	2.83	2.96	3.25	3.73	4.07	3.99	3.55	3.04	2.74	2.43	2.04	1.83	1.84	1.94	2.09	2.25	2.38	2.71	3.07	3.17	2.78	2.16	1.79	1.66	1.59	1.79	2.41	3.31	3.66	3.24	2.56	2.26	2.09	1.92	1.83	1.68	1.43	1.22	1.04	0.81	0.94	0.89	0.91	1.53	0.66	0.73	1.04	1.59	2.05	2.19	2.26	2.40	2.49	2.44	2.27	2.02	1.79	1.61	1.45	1.37	1.45	1.58	1.75	1.98	2.22	2.41	2.64	3.08	3.71	3.94	3.53	2.87	2.46	2.29	2.27	2.22	2.11	1.98	1.88	1.84	1.92	2.14	2.43	2.86	3.48	3.80	3.80
3.87	3.29	2.23	1.60	1.35	1.38	1.36	1.28	1.40	1.65	1.89	2.05	2.23	2.47	2.68	2.83	2.90	2.96	3.06	3.21	3.49	3.86	4.14	4.57	5.12	5.41	5.23	4.51	3.66	3.12	2.87	2.82	2.82	2.71	2.58	2.44	2.36	2.34	2.40	2.65	3.07	3.52	3.79	3.75	3.42	2.95	2.53	2.12	1.74	1.51	1.45	1.54	1.80	2.04	2.31	2.61	2.73	2.47	1.86	1.57	1.49	1.41	1.53	1.97	2.62	3.21	3.36	2.91	2.28	1.97	1.81	1.63	1.52	1.37	1.07	0.90	0.94	0.93	0.83	0.80	0.76	0.63	0.68	1.10	1.73	2.31	2.58	2.45	2.43	2.63	2.72	2.60	2.38	2.13	1.91	1.73	1.61	1.55	1.56	1.57	1.63	1.81	2.09	2.35	2.69	3.39	4.23	4.26	3.46	2.78	2.56	2.50	2.41	2.21	1.93	1.66	1.49	1.47	1.64	1.96	2.34	2.83	3.56	3.95	3.95
3.75	3.11	1.99	1.45	1.34	1.41	1.29	1.11	1.05	1.12	1.29	1.58	2.01	2.45	2.83	3.08	3.22	3.33	3.40	3.47	3.69	4.04	4.38	4.84	5.17	5.09	4.61	3.96	3.27	2.82	2.62	2.57	2.56	2.49	2.44	2.35	2.25	2.24	2.42	2.75	3.08	3.34	3.49	3.57	3.43	2.96	2.40	1.90	1.49	1.29	1.28	1.41	1.69	2.05	2.14	2.18	1.99	1.53	1.19	1.23	1.25	1.19	1.46	1.94	2.36	2.77	2.98	2.71	2.13	1.74	1.61	1.47	1.35	1.23	0.99	0.84	0.82	0.96	0.66	0.71	0.85	0.97	1.23	1.82	2.53	3.07	3.14	2.93	2.94	3.16	3.11	2.78	2.45	2.18	2.00	1.79	1.53	1.31	1.21	1.15	1.29	1.68	2.10	2.43	2.92	3.84	4.63	4.41	3.40	2.69	2.42	2.29	2.19	2.04	1.83	1.70	1.71	1.84	2.01	2.21	2.50	3.02	3.74	4.11	4.11
3.56	2.88	1.80	1.37	1.39	1.49	1.36	1.19	1.05	0.96	1.01	1.28	1.76	2.29	2.74	3.07	3.32	3.52	3.68	3.79	3.97	4.29	4.70	5.09	5.08	4.64	4.03	3.43	2.88	2.49	2.27	2.17	2.12	2.14	2.25	2.33	2.34	2.40	2.60	2.86	3.02	3.10	3.24	3.48	3.47	2.89	2.13	1.58	1.37	1.43	1.65	1.88	2.01	2.04	2.05	1.74	1.35	1.03	0.99	1.11	1.10	1.10	1.36	1.73	2.09	2.50	2.81	2.63	2.10	1.71	1.56	1.38	1.14	0.94	0.80	0.69	0.62	0.68	0.90	1.20	1.51	1.80	2.13	2.80	3.59	4.09	4.09	3.98	3.97	3.88	3.40	2.85	2.45	2.16	1.96	1.71	1.39	1.15	1.10	1.14	1.43	1.86	2.23	2.60	3.22	4.24	4.80	4.33	3.17	2.36	1.95	1.79	1.82	1.86	1.83	1.88	1.97	2.05	2.09	2.17	2.42	2.95	3.76	4.23	4.23
3.35	2.72	1.75	1.40	1.48	1.56	1.48	1.40	1.35	1.30	1.30	1.47	1.86	2.28	2.66	3.00	3.30	3.61	3.91	4.15	4.36	4.68	5.11	5.30	4.98	4.29	3.62	3.09	2.65	2.37	2.25	2.17	2.06	1.99	2.09	2.26	2.33	2.40	2.56	2.75	2.77	2.76	2.99	3.39	3.38	2.63	1.88	1.69	1.88	2.20	2.47	2.53	2.40	2.22	2.13	1.74	1.52	1.41	1.41	1.40	1.34	1.40	1.64	1.95	2.37	2.77	2.92	2.70	2.31	2.01	1.77	1.43	0.98	0.67	0.58	0.65	0.83	1.19	1.61	2.09	2.59	3.04	3.46	4.22	5.04	5.40	5.34	5.13	4.82	4.21	3.38	2.79	2.38	2.07	1.79	1.54	1.32	1.23	1.32	1.56	1.89	2.14	2.39	2.75	3.47	4.50	4.86	4.14	2.86	1.97	1.63	1.60	1.74	1.86	1.82	1.77	1.69	1.59	1.58	1.77	2.19	2.84	3.87	4.45	4.45
3.16	2.57	1.72	1.45	1.58	1.62	1.59	1.63	1.76	1.92	2.06	2.21	2.43	2.64	2.86	3.17	3.49	3.89	4.23	4.51	4.82	5.12	5.36	5.28	4.72	3.95	3.38	3.04	2.76	2.64	2.61	2.53	2.33	2.19	2.18	2.25	2.29	2.36	2.47	2.47	2.37	2.41	2.78	3.31	3.35	2.76	2.38	2.55	2.86	3.00	2.97	2.75	2.48	2.30	2.17	2.10	2.09	2.09	2.11	2.11	2.14	2.30	2.57	2.94	3.26	3.29	3.02	2.71	2.42	2.10	1.68	1.18	0.78	0.65	0.79	1.09	1.44	1.96	2.63	3.46	4.23	4.74	5.17	5.72	6.06	6.00	5.63	5.19	4.70	4.02	3.31	2.76	2.34	2.00	1.72	1.53	1.40	1.37	1.47	1.69	1.91	2.14	2.47	2.90	3.69	4.70	4.97	4.11	2.83	2.16	2.00	1.98	1.99	2.00	1.83	1.64	1.48	1.38	1.45	1.75	2.27	3.04	4.12	4.66	4.66
2.97	2.44	1.68	1.52	1.66	1.69	1.72	1.86	2.14	2.52	2.88	3.16	3.32	3.34	3.40	3.62	3.97	4.41	4.73	4.91	5.13	5.31	5.26	4.92	4.27	3.65	3.30	3.11	2.98	2.92	2.88	2.78	2.62	2.51	2.42	2.36	2.34	2.35	2.30	2.17	2.16	2.36	2.82	3.38	3.54	3.25	3.04	3.10	3.12	2.96	2.71	2.46	2.33	2.29	2.23	2.20	2.22	2.30	2.45	2.61	2.79	3.07	3.37	3.56	3.48	3.05	2.48	2.31	2.16	1.75	1.24	0.89	0.81	0.98	1.35	1.76	2.25	3.04	4.12	5.16	5.80	6.11	6.21	6.18	5.94	5.35	4.54	4.06	3.79	3.51	3.16	2.75	2.34	2.03	1.85	1.72	1.64	1.58	1.54	1.55	1.71	2.06	2.58	3.19	4.07	5.03	5.21	4.34	3.30	2.86	2.69	2.46	2.25	2.14	1.97	1.85	1.82	1.85	1.98	2.20	2.58	3.30	4.27	4.73	4.73
2.83	2.35	1.70	1.62	1.74	1.77	1.83	2.05	2.52	3.07	3.54	3.81	3.92	3.96	4.04	4.27	4.66	5.07	5.23	5.13	5.05	5.01	4.81	4.34	3.79	3.42	3.22	3.08	2.95	2.89	2.82	2.69	2.54	2.42	2.31	2.26	2.25	2.22	2.14	2.15	2.29	2.50	2.91	3.49	3.71	3.41	2.98	2.75	2.51	2.24	2.02	1.92	1.99	2.10	2.05	2.02	2.08	2.21	2.41	2.62	2.88	3.20	3.32	3.14	2.64	1.97	1.62	1.83	1.86	1.48	1.11	1.03	1.25	1.62	2.10	2.58	3.24	4.29	5.45	6.10	6.25	6.12	5.84	5.42	4.87	4.11	3.37	2.90	2.73	2.71	2.70	2.55	2.29	2.07	1.96	1.89	1.87	1.84	1.76	1.69	1.87	2.30	2.87	3.57	4.51	5.48	5.43	4.30	3.32	2.95	2.69	2.39	2.26	2.21	2.14	2.16	2.24	2.31	2.38	2.51	2.80	3.47	4.32	4.71	4.71
2.73	2.31	1.79	1.79	1.85	1.90	2.05	2.46	3.07	3.52	3.71	3.74	3.82	4.03	4.38	4.85	5.29	5.52	5.37	4.97	4.63	4.42	4.15	3.78	3.44	3.24	3.08	2.91	2.78	2.73	2.65	2.50	2.24	2.04	1.98	2.06	2.11	2.08	2.05	2.09	2.16	2.34	2.81	3.48	3.67	3.24	2.65	2.28	2.05	1.84	1.71	1.64	1.68	1.80	1.86	1.93	2.06	2.16	2.28	2.46	2.72	2.87	2.66	2.09	1.46	1.14	1.25	1.67	1.79	1.56	1.43	1.57	1.97	2.52	3.11	3.67	4.40	5.41	6.03	6.01	5.41	4.67	4.14	3.80	3.51	3.20	2.87	2.49	2.15	2.07	2.20	2.25	2.19	2.15	2.10	2.05	2.09	2.19	2.31	2.41	2.65	3.01	3.41	4.02	5.01	5.75	5.25	3.60	2.62	2.28	2.10	2.06	2.14	2.16	2.14	2.19	2.25	2.29	2.37	2.56	2.93	3.61	4.31	4.61	4.61
2.68	2.29	1.91	1.96	2.00	2.14	2.57	3.06	3.33	3.30	3.15	3.09	3.33	3.86	4.50	5.11	5.45	5.42	5.02	4.51	4.10	3.82	3.59	3.38	3.24	3.15	2.97	2.79	2.69	2.66	2.59	2.44	2.21	2.07	2.09	2.17	2.15	2.01	1.86	1.82	1.92	2.21	2.79	3.41	3.56	3.16	2.62	2.26	2.05	1.91	1.80	1.68	1.60	1.67	1.83	2.00	2.12	2.19	2.28	2.44	2.55	2.33	1.73	1.19	1.00	1.13	1.51	1.86	2.01	2.09	2.27	2.61	3.24	3.93	4.51	5.09	5.73	6.15	5.97	5.23	4.25	3.29	2.87	2.71	2.61	2.51	2.49	2.44	2.25	2.10	2.11	2.14	2.20	2.28	2.30	2.27	2.38	2.66	3.06	3.43	3.72	3.92	4.07	4.49	5.40	5.60	4.48	2.92	2.12	1.84	1.71	1.75	1.94	2.03	1.97	1.94	1.94	2.06	2.29	2.62	3.07	3.70	4.22	4.41	4.41
2.63	2.25	1.94	2.01	2.05	2.35	2.75	2.92	2.79	2.52	2.45	2.72	3.29	4.01	4.72	5.18	5.26	4.95	4.46	4.00	3.63	3.37	3.19	3.11	3.10	3.05	2.87	2.74	2.70	2.68	2.61	2.52	2.46	2.47	2.49	2.41	2.23	1.97	1.78	1.81	2.05	2.36	2.76	3.21	3.42	3.16	2.62	2.19	1.95	1.79	1.64	1.53	1.54	1.70	1.91	2.10	2.23	2.32	2.41	2.48	2.30	1.73	1.21	1.11	1.37	1.79	2.13	2.38	2.70	3.14	3.53	4.09	4.81	5.37	5.76	6.10	6.28	6.09	5.38	4.50	3.74	3.07	2.72	2.58	2.45	2.22	2.08	2.16	2.30	2.31	2.25	2.22	2.30	2.41	2.45	2.47	2.66	3.08	3.63	4.04	4.31	4.48	4.61	4.92	5.32	5.12	3.82	2.78	2.34	2.08	1.81	1.78	1.96	2.07	1.98	1.88	1.90	2.08	2.41	2.75	3.18	3.74	4.10	4.17	4.17
2.50	2.08	1.79	1.87	1.93	2.18	2.33	2.27	2.17	2.25	2.57	3.09	3.81	4.57	5.10	5.26	5.01	4.52	4.01	3.60	3.28	3.02	2.87	2.86	2.92	2.90	2.73	2.64	2.68	2.66	2.53	2.49	2.55	2.60	2.56	2.40	2.17	1.91	1.80	1.89	2.05	2.17	2.39	2.86	3.27	3.13	2.50	1.95	1.70	1.56	1.46	1.48	1.68	1.94	2.13	2.24	2.34	2.39	2.37	2.24	1.86	1.36	1.25	1.56	2.11	2.56	2.92	3.40	3.95	4.27	4.63	5.20	5.69	5.92	5.93	5.89	5.67	5.12	4.49	3.98	3.61	3.30	3.04	2.84	2.63	2.28	1.94	1.80	1.95	2.15	2.23	2.29	2.40	2.51	2.61	2.73	2.98	3.40	3.87	4.21	4.39	4.50	4.64	4.89	5.06	4.76	3.94	3.21	2.87	2.62	2.38	2.29	2.34	2.35	2.21	2.14	2.23	2.40	2.60	2.81	3.18	3.69	3.95	3.96	3.96
2.26	1.84	1.63	1.76	1.84	1.97	2.07	2.18	2.40	2.79	3.27	3.88	4.62	5.21	5.41	5.21	4.72	4.14	3.63	3.25	2.95	2.69	2.56	2.59	2.68	2.72	2.59	2.46	2.45	2.42	2.24	2.22	2.28	2.31	2.26	2.16	2.03	1.81	1.71	1.70	1.72	1.78	2.01	2.58	3.13	3.10	2.51	1.99	1.83	1.82	1.88	2.06	2.29	2.40	2.40	2.33	2.24	2.09	1.88	1.61	1.34	1.28	1.53	2.12	2.80	3.39	4.00	4.51	4.68	4.75	5.00	5.37	5.57	5.41	5.14	4.82	4.42	4.02	3.72	3.53	3.40	3.31	3.21	3.07	2.84	2.48	2.03	1.70	1.71	1.93	2.15	2.33	2.47	2.63	2.81	3.08	3.44	3.82	4.11	4.17	4.06	3.99	4.10	4.55	4.92	4.69	4.09	3.58	3.28	3.04	2.81	2.64	2.53	2.45	2.31	2.29	2.34	2.38	2.45	2.63	3.02	3.58	3.83	3.81	3.81
1.99	1.71	1.65	1.86	2.02	2.16	2.33	2.58	2.96	3.41	3.96	4.65	5.29	5.50	5.29	4.80	4.21	3.63	3.15	2.81	2.54	2.34	2.26	2.28	2.41	2.57	2.48	2.19	2.01	1.99	1.86	1.81	1.85	1.89	1.90	1.93	1.99	1.82	1.76	1.73	1.77	1.92	2.14	2.60	3.06	3.11	2.79	2.48	2.40	2.49	2.61	2.70	2.71	2.61	2.42	2.27	2.08	1.86	1.69	1.55	1.50	1.68	2.13	2.83	3.60	4.31	4.76	4.74	4.49	4.45	4.78	5.02	4.85	4.41	4.07	3.83	3.61	3.44	3.31	3.17	3.07	3.05	3.04	2.99	2.82	2.51	2.13	1.85	1.82	1.94	2.13	2.31	2.48	2.71	3.02	3.45	3.83	4.00	3.97	3.70	3.29	3.22	3.63	4.37	4.91	4.61	3.91	3.53	3.33	3.14	2.85	2.54	2.38	2.31	2.14	2.02	1.90	1.86	1.98	2.31	2.85	3.53	3.80	3.78	3.78
1.88	1.79	1.82	2.04	2.25	2.45	2.67	2.97	3.39	3.91	4.53	5.14	5.44	5.26	4.71	4.12	3.57	3.01	2.57	2.25	2.07	1.99	1.96	1.98	2.19	2.45	2.38	1.93	1.63	1.62	1.60	1.56	1.55	1.53	1.55	1.76	1.90	1.97	2.05	2.15	2.32	2.51	2.66	2.88	3.16	3.28	3.22	3.12	3.07	2.98	2.86	2.70	2.56	2.42	2.35	2.28	2.25	2.24	2.28	2.29	2.34	2.55	3.01	3.71	4.41	4.82	4.66	4.07	3.78	4.02	4.53	4.71	4.38	3.82	3.53	3.39	3.28	3.20	3.11	2.99	2.88	2.80	2.75	2.73	2.67	2.49	2.18	1.98	1.98	2.03	2.14	2.28	2.45	2.73	3.15	3.49	3.56	3.41	3.11	2.64	2.35	2.68	3.48	4.47	4.91	4.41	3.63	3.21	3.01	2.90	2.75	2.52	2.36	2.24	2.00	1.78	1.61	1.58	1.75	2.15	2.91	3.74	3.89	3.73	3.73
2.05	2.05	2.05	2.08	2.23	2.52	2.85	3.25	3.74	4.31	4.87	5.19	5.10	4.60	3.98	3.48	3.01	2.49	2.04	1.78	1.72	1.66	1.57	1.70	2.04	2.33	2.29	1.90	1.48	1.46	1.59	1.66	1.61	1.44	1.34	1.63	1.81	2.00	2.20	2.45	2.73	2.90	2.94	3.01	3.22	3.44	3.53	3.49	3.31	3.01	2.75	2.64	2.60	2.56	2.50	2.43	2.52	2.55	2.64	2.74	2.92	3.23	3.71	4.30	4.79	4.70	3.99	3.44	3.48	3.94	4.44	4.53	4.12	3.55	3.29	3.21	3.13	3.04	2.94	2.83	2.75	2.66	2.53	2.45	2.45	2.43	2.25	2.07	2.06	2.12	2.19	2.29	2.42	2.66	2.91	2.89	2.59	2.31	1.99	1.66	1.81	2.56	3.62	4.62	4.87	4.18	3.35	2.84	2.56	2.44	2.47	2.51	2.45	2.29	2.06	1.92	1.88	1.91	2.10	2.59	3.45	4.13	3.92	3.52	3.52
2.20	2.24	2.21	2.13	2.25	2.60	3.01	3.50	4.04	4.54	4.89	4.88	4.52	3.95	3.40	2.98	2.55	2.08	1.66	1.46	1.43	1.32	1.26	1.52	1.97	2.28	2.34	2.11	1.74	1.71	1.90	2.03	1.90	1.66	1.59	1.71	1.77	1.97	2.25	2.59	2.80	2.79	2.72	2.79	3.09	3.47	3.67	3.59	3.32	3.06	2.99	3.01	2.95	2.79	2.64	2.57	2.69	2.56	2.61	2.81	3.13	3.51	3.96	4.41	4.63	4.21	3.51	3.37	3.61	3.96	4.29	4.29	3.83	3.22	2.91	2.92	2.92	2.81	2.67	2.56	2.49	2.44	2.30	2.21	2.20	2.27	2.29	2.26	2.27	2.29	2.28	2.25	2.26	2.27	2.15	1.76	1.45	1.26	1.13	1.24	1.75	2.70	3.86	4.79	4.84	4.03	3.18	2.64	2.22	1.92	1.96	2.21	2.34	2.19	2.01	1.99	2.10	2.33	2.77	3.38	4.06	4.29	3.73	3.18	3.18
2.19	2.21	2.26	2.30	2.49	2.84	3.26	3.74	4.21	4.55	4.65	4.41	3.96	3.43	2.95	2.54	2.12	1.67	1.28	1.15	1.15	1.08	1.18	1.57	2.07	2.44	2.64	2.62	2.50	2.55	2.65	2.58	2.35	2.09	1.87	1.90	2.03	2.25	2.56	2.70	2.59	2.40	2.38	2.62	3.05	3.55	3.84	3.80	3.60	3.47	3.38	3.24	2.99	2.78	2.67	2.65	2.65	2.68	2.81	3.01	3.28	3.56	3.88	4.22	4.28	3.81	3.39	3.45	3.61	3.75	3.93	3.92	3.50	2.83	2.45	2.49	2.58	2.49	2.35	2.23	2.13	2.10	2.04	2.02	1.99	2.01	2.19	2.41	2.51	2.45	2.29	2.12	1.92	1.64	1.29	1.00	0.87	0.87	1.01	1.41	2.05	3.06	4.27	5.07	4.90	4.02	3.21	2.67	2.19	1.75	1.62	1.86	2.04	1.92	1.80	1.81	2.06	2.54	3.17	3.79	4.22	4.14	3.40	2.87	2.87
2.15	2.15	2.26	2.45	2.77	3.15	3.50	3.84	4.17	4.37	4.30	3.95	3.49	3.00	2.51	2.08	1.62	1.16	0.87	0.88	1.01	1.16	1.48	1.97	2.48	2.86	3.14	3.20	3.12	3.12	3.09	2.92	2.67	2.44	2.30	2.32	2.47	2.66	2.69	2.47	2.18	2.13	2.35	2.68	3.14	3.74	4.16	4.16	3.90	3.69	3.50	3.23	2.97	2.80	2.70	2.70	2.76	2.84	2.90	3.00	3.12	3.29	3.58	3.95	4.01	3.62	3.30	3.31	3.31	3.36	3.54	3.60	3.32	2.71	2.23	2.22	2.29	2.23	2.07	1.92	1.80	1.82	1.78	1.86	1.83	1.70	1.86	2.16	2.33	2.29	2.13	1.94	1.69	1.38	1.18	1.13	1.16	1.31	1.62	2.13	2.87	4.02	5.10	5.42	4.89	3.86	3.11	2.64	2.23	1.82	1.60	1.74	1.85	1.82	1.83	1.97	2.35	2.87	3.38	3.86	4.08	3.84	3.09	2.60	2.60
2.20	2.22	2.37	2.60	2.94	3.26	3.48	3.69	3.98	4.13	3.95	3.56	3.10	2.59	2.07	1.57	1.07	0.71	0.74	0.93	1.21	1.55	1.97	2.47	2.94	3.30	3.53	3.48	3.25	3.10	3.01	2.91	2.78	2.65	2.54	2.53	2.58	2.54	2.27	1.94	1.89	2.08	2.30	2.57	3.10	3.94	4.44	4.30	3.81	3.49	3.33	3.17	3.02	2.88	2.77	2.73	3.11	2.65	2.69	2.68	2.75	2.89	3.30	3.75	3.86	3.52	3.14	3.02	2.99	3.07	3.33	3.54	3.40	2.93	2.37	2.15	2.14	2.09	1.95	2.20	1.73	1.58	1.55	1.69	1.68	1.45	1.38	1.53	1.72	1.85	1.88	1.84	1.73	1.60	1.57	1.64	1.83	2.19	2.71	3.39	4.29	5.31	5.86	5.57	4.66	3.71	3.02	2.43	1.93	1.58	1.55	1.75	1.86	2.02	2.28	2.61	2.93	3.18	3.43	3.70	3.80	3.50	2.76	2.34	2.34
2.27	2.29	2.41	2.61	2.84	3.02	3.21	3.52	3.88	3.98	3.68	3.21	2.72	2.16	1.55	0.99	0.70	0.76	1.06	1.35	1.65	1.97	2.35	2.82	3.24	3.52	3.61	3.41	3.09	2.88	2.82	2.80	2.80	2.81	2.76	2.59	2.88	2.07	1.79	1.70	1.81	1.95	2.05	2.32	3.09	4.14	4.57	4.15	3.40	2.98	2.81	2.72	2.68	2.69	2.73	2.72	2.60	2.45	2.42	2.50	2.60	2.85	3.30	3.71	3.81	3.48	3.05	2.84	2.82	3.01	3.39	3.74	3.66	3.24	2.82	2.52	2.36	2.24	2.13	2.00	1.83	1.64	1.62	1.73	1.66	1.33	1.06	1.09	1.31	1.57	1.76	1.84	1.86	1.83	1.86	2.00	2.36	2.99	3.75	4.46	5.25	5.89	5.88	5.10	4.14	3.38	2.83	2.28	1.74	1.45	1.54	1.71	1.87	2.19	2.51	2.73	2.87	2.97	3.16	3.40	3.48	3.17	2.49	2.20	2.20
2.30	2.29	2.36	2.49	2.62	2.82	3.18	3.67	3.96	3.85	3.39	2.82	2.27	1.64	1.01	1.32	0.90	1.33	1.63	1.83	2.04	2.32	2.68	3.07	3.34	3.48	3.45	3.24	2.99	2.84	2.81	2.78	2.76	2.79	2.78	2.61	2.27	1.95	1.72	1.70	1.77	1.87	2.03	2.42	3.27	4.26	4.53	3.86	2.88	2.36	2.14	1.97	1.93	2.06	2.27	2.45	2.47	2.44	2.50	2.61	2.77	3.03	3.34	3.64	3.76	3.50	3.02	2.78	2.80	3.09	3.57	3.96	3.90	3.45	3.12	3.01	2.95	2.89	2.77	2.56	2.30	2.11	2.14	2.12	1.83	1.38	1.16	1.21	1.43	1.64	1.78	1.88	1.97	2.02	2.12	2.42	3.02	3.71	4.20	4.66	5.29	5.62	5.17	4.23	3.48	2.88	2.40	2.09	1.85	1.68	1.66	1.65	1.62	1.69	1.78	1.93	2.12	2.37	2.72	3.05	3.21	3.04	2.52	2.26	2.26
2.31	2.31	2.38	2.49	2.64	3.00	3.52	3.91	3.90	3.51	2.91	2.26	1.65	1.02	0.69	0.86	1.29	1.63	1.81	2.00	2.27	2.60	2.92	3.11	3.17	3.19	3.22	3.19	3.08	2.96	2.87	2.76	2.63	2.54	2.50	2.52	2.34	2.09	1.86	1.80	1.90	2.10	2.29	2.64	3.39	4.21	4.33	3.54	2.52	2.06	1.84	1.64	1.60	1.75	2.01	2.28	2.43	2.51	2.62	2.74	2.88	2.98	3.14	3.46	3.71	3.50	2.95	2.72	2.82	3.16	3.63	4.05	3.99	3.50	3.10	3.03	3.11	3.18	3.16	3.04	2.91	2.88	2.84	2.66	2.25	1.87	1.70	1.80	1.92	1.94	1.93	2.02	2.19	2.38	2.68	3.18	3.68	3.86	3.86	4.17	4.87	5.06	4.36	3.46	2.86	2.36	1.92	1.71	1.69	1.76	1.74	1.61	1.40	1.22	1.17	1.30	1.59	1.98	2.41	2.80	3.11	3.10	2.62	2.32	2.32
2.31	2.33	2.43	2.60	2.86	3.33	3.77	3.85	3.51	2.88	2.18	1.45	0.82	0.49	1.26	0.91	1.22	1.44	1.70	1.99	2.34	2.68	2.83	2.79	2.77	2.91	3.15	3.29	3.19	2.93	2.72	2.54	2.40	2.27	2.23	2.36	2.38	2.19	2.00	2.01	2.18	2.36	2.49	2.80	3.47	4.11	4.14	3.47	2.65	2.23	2.07	2.05	2.21	2.40	2.51	2.54	2.57	2.58	2.60	2.64	2.66	2.64	2.82	3.31	3.69	3.48	2.83	2.61	2.74	3.04	3.49	3.97	3.93	3.34	2.84	2.71	2.78	2.89	2.94	2.94	2.99	3.08	3.09	2.91	2.67	2.52	2.46	2.44	2.36	2.23	2.15	2.23	2.46	2.79	3.20	3.51	3.49	3.20	3.14	3.69	4.55	4.69	3.80	2.91	2.43	2.02	1.60	1.35	1.39	1.58	1.64	1.48	1.37	1.36	1.43	1.52	1.69	1.99	2.38	2.80	3.21	3.25	2.71	2.35	2.35
2.32	2.36	2.48	2.70	3.05	3.49	3.67	3.42	2.82	2.05	1.32	0.68	0.36	0.40	0.67	0.97	1.18	1.40	1.69	1.99	2.30	2.53	2.52	2.44	2.57	2.91	3.25	3.38	3.18	2.82	2.53	2.31	2.21	2.13	2.05	2.17	2.31	2.17	2.05	2.17	2.37	2.51	2.67	3.09	3.68	4.14	4.12	3.67	3.19	2.92	2.81	2.93	3.08	3.10	2.94	2.71	2.57	2.48	2.40	2.32	2.27	2.27	2.55	3.20	3.65	3.45	2.77	2.52	2.59	2.77	3.24	3.80	3.77	3.13	2.56	2.40	2.46	2.48	2.43	2.44	2.55	2.69	2.73	2.66	2.62	2.68	2.70	2.62	2.45	2.32	2.26	2.31	2.49	2.79	3.00	2.90	2.54	2.41	2.84	3.65	4.51	4.50	3.56	2.66	2.24	1.88	1.44	1.14	1.10	1.32	1.42	1.27	1.24	1.45	1.71	1.91	2.10	2.32	2.60	3.04	3.48	3.41	2.79	2.39	2.39
2.36	2.42	2.57	2.82	3.15	3.36	3.22	2.70	1.99	1.26	0.68	0.39	0.43	0.65	0.93	1.19	1.43	1.64	1.89	2.14	2.37	2.45	2.39	2.44	2.71	3.08	3.39	3.45	3.23	2.95	2.68	2.48	2.38	2.24	2.02	1.99	2.15	2.12	2.12	2.32	2.54	2.73	3.01	3.49	3.96	4.25	4.19	3.90	3.61	3.48	3.47	3.45	3.27	2.95	2.65	2.49	2.43	2.30	2.14	1.99	1.90	1.95	2.34	3.13	3.67	3.51	2.89	2.53	2.45	2.55	3.03	3.63	3.65	3.02	2.31	2.12	2.23	2.19	1.99	1.94	2.04	2.15	2.09	1.97	1.97	2.04	2.13	2.12	2.11	2.14	2.20	2.23	2.31	2.39	2.31	2.05	1.98	2.34	3.23	4.17	4.72	4.42	3.58	2.83	2.35	1.89	1.38	0.99	0.90	1.14	1.26	1.15	1.18	1.38	1.65	1.96	2.36	2.69	2.99	3.45	3.78	3.54	2.84	2.45	2.45
2.40	2.45	2.59	2.81	2.97	2.88	2.49	1.89	1.24	0.70	0.45	0.50	0.73	1.01	1.32	1.66	1.93	2.12	2.34	2.58	2.75	2.75	2.68	2.74	2.92	3.27	3.64	3.75	3.63	3.42	3.18	3.00	2.84	2.58	2.15	1.97	2.05	2.15	2.34	2.60	2.84	3.09	3.42	3.81	4.08	4.22	4.18	3.99	3.79	3.68	3.59	3.40	3.06	2.69	2.47	2.43	2.41	2.25	2.02	1.82	1.74	1.85	2.33	3.23	3.82	3.71	3.11	2.60	2.38	2.43	2.87	3.49	3.54	2.89	2.07	1.78	1.91	1.91	1.68	1.60	1.72	1.78	1.56	1.31	1.21	1.21	1.29	1.43	1.66	1.91	2.08	2.14	2.15	2.10	2.01	2.05	2.40	3.06	3.93	4.80	4.92	4.27	3.51	2.98	2.52	1.91	1.35	1.03	0.98	1.14	1.28	1.32	1.42	1.55	1.77	2.11	2.57	2.97	3.35	3.78	3.91	3.53	2.78	2.42	2.42
2.44	2.44	2.48	2.52	2.41	2.09	1.63	1.18	0.75	0.51	0.58	0.80	1.08	1.42	1.83	2.28	2.64	2.90	3.15	3.36	3.41	3.28	3.09	2.95	3.03	3.50	4.01	4.08	3.87	3.57	3.29	3.07	2.83	2.50	2.14	2.04	2.10	2.31	2.62	2.91	3.14	3.36	3.58	3.77	3.90	4.05	4.13	4.06	3.87	3.68	3.44	3.18	2.99	2.90	2.79	2.64	2.49	2.30	2.10	1.97	1.97	2.14	2.66	3.49	4.00	3.86	3.17	2.59	2.38	2.47	2.88	3.36	3.33	2.61	1.76	1.47	1.62	1.72	1.62	1.57	1.63	1.60	1.30	0.99	0.92	0.98	1.08	1.25	1.51	1.77	1.96	2.07	2.12	2.15	2.24	2.54	3.00	3.61	4.38	4.93	4.72	3.92	3.23	2.76	2.32	1.73	1.39	1.27	1.28	1.42	1.60	1.69	1.73	1.77	1.99	2.36	2.78	3.15	3.53	3.82	3.77	3.32	2.59	2.26	2.26
2.48	2.45	2.37	2.19	1.85	1.46	1.11	0.88	0.74	0.78	1.01	1.27	1.62	2.07	2.55	3.04	3.42	3.71	3.91	3.91	3.70	3.33	2.96	2.80	3.05	3.75	4.23	4.05	3.53	3.11	2.79	2.55	2.31	2.07	1.99	2.12	2.26	2.50	2.81	3.06	3.20	3.29	3.34	3.39	3.57	3.87	4.13	4.13	3.88	3.56	3.25	3.00	2.88	2.84	2.77	2.62	2.47	2.30	2.15	2.10	2.18	2.45	3.02	3.70	4.07	3.83	3.09	2.55	2.50	2.71	3.02	3.19	2.95	2.25	1.57	1.37	1.47	1.55	1.61	1.65	1.65	1.59	1.35	1.11	1.15	1.31	1.43	1.52	1.61	1.72	1.85	2.01	2.15	2.25	2.36	2.61	3.03	3.71	4.43	4.66	4.19	3.43	2.90	2.42	1.92	1.55	1.47	1.44	1.48	1.60	1.72	1.78	1.84	1.92	2.11	2.44	2.85	3.28	3.61	3.69	3.47	2.98	2.35	2.12	2.12
2.52	2.43	2.25	2.00	1.73	1.48	1.30	1.20	1.24	1.40	1.61	1.89	2.31	2.82	3.33	3.74	4.02	4.12	4.01	3.68	3.20	2.68	2.44	2.61	3.17	3.96	4.25	3.82	3.20	2.85	2.64	2.46	2.30	2.07	2.05	2.25	2.41	2.61	2.83	2.97	3.00	2.96	2.90	2.97	3.27	3.73	4.13	4.16	3.77	3.21	2.82	2.61	2.48	2.36	2.27	2.27	2.26	2.17	2.06	2.02	2.14	2.54	3.20	3.81	4.03	3.75	3.14	2.71	2.71	2.89	3.01	2.87	2.48	2.01	1.63	1.55	1.50	1.46	1.64	1.77	1.69	1.59	1.52	1.57	1.76	1.88	1.85	1.79	1.79	1.81	1.93	2.05	2.22	2.30	2.41	2.68	3.18	3.87	4.34	4.29	3.71	3.01	2.54	2.05	1.55	1.40	1.50	1.43	1.35	1.36	1.45	1.67	1.98	2.28	2.54	2.89	3.29	3.60	3.70	3.50	3.09	2.59	2.21	2.14	2.14
2.49	2.31	2.05	1.98	1.87	1.80	1.76	1.81	1.97	2.14	2.29	2.56	3.01	3.54	3.96	4.18	4.16	3.89	3.37	2.75	2.21	1.94	2.14	2.67	3.37	4.16	4.31	3.86	3.44	3.24	3.11	2.97	2.74	2.44	2.32	2.41	2.48	2.59	2.70	2.74	2.65	2.50	2.48	2.71	3.09	3.62	4.13	4.15	3.53	2.73	2.27	2.09	1.95	1.80	1.74	1.86	2.00	2.03	2.02	2.04	2.22	2.69	3.32	3.78	3.88	3.62	3.18	2.82	2.72	2.77	2.76	2.50	2.20	2.02	1.93	1.87	1.72	1.63	1.97	2.16	2.01	1.89	2.02	2.37	2.51	2.29	2.06	1.96	1.98	2.02	2.08	2.18	2.30	2.44	2.67	3.04	3.50	3.95	4.19	4.00	3.40	2.71	2.19	1.71	1.27	1.22	1.42	1.39	1.26	1.22	1.35	1.75	2.31	2.86	3.34	3.71	3.89	3.85	3.60	3.14	2.64	2.31	2.30	2.40	2.40
2.40	2.19	1.99	2.05	2.01	2.07	2.19	2.40	2.65	2.84	3.03	3.29	3.70	4.09	4.23	4.10	3.73	3.14	2.46	1.88	1.61	1.77	2.30	2.93	3.69	4.47	4.51	4.11	3.81	3.65	3.47	3.22	2.92	2.64	2.50	2.49	2.49	2.50	2.51	2.40	2.19	2.10	2.29	2.66	3.08	3.68	4.19	4.08	3.24	2.39	2.05	1.90	1.63	1.46	1.50	1.72	1.95	2.04	2.08	2.16	2.40	2.85	3.32	3.61	3.67	3.53	3.17	2.75	2.56	2.57	2.49	2.33	2.29	2.35	2.40	2.36	2.24	2.29	2.74	2.88	2.70	2.64	2.88	3.13	2.90	2.37	2.12	2.09	2.14	2.17	2.20	2.22	2.31	2.46	2.70	3.01	3.37	3.76	3.98	3.79	3.19	2.55	2.07	1.62	1.24	1.12	1.28	1.39	1.41	1.43	1.57	2.03	2.71	3.39	3.83	3.97	3.84	3.52	3.05	2.45	2.12	2.18	2.54	2.80	2.80
2.33	2.19	2.09	2.15	2.25	2.46	2.74	3.00	3.19	3.32	3.50	3.77	4.04	4.14	3.95	3.50	2.92	2.27	1.73	1.46	1.63	2.20	2.82	3.38	4.15	4.75	4.60	4.02	3.62	3.38	3.13	2.87	2.68	2.57	2.49	2.45	2.40	2.33	2.20	2.03	1.93	2.13	2.50	2.86	3.29	3.89	4.27	4.00	3.18	2.50	2.24	2.07	1.79	1.72	1.80	1.95	2.11	2.18	2.25	2.37	2.57	2.92	3.28	3.49	3.57	3.51	3.19	2.78	2.60	2.59	2.51	2.46	2.60	2.74	2.79	2.81	2.93	3.23	3.56	3.58	3.41	3.35	3.44	3.31	2.74	2.24	2.13	2.18	2.22	2.22	2.23	2.19	2.22	2.28	2.42	2.68	3.10	3.61	3.84	3.58	2.95	2.45	2.12	1.76	1.41	1.24	1.29	1.46	1.65	1.84	2.19	2.72	3.28	3.69	3.70	3.36	2.98	2.58	2.08	1.73	1.80	2.25	2.82	3.12	3.12
2.33	2.25	2.20	2.28	2.48	2.75	2.99	3.16	3.26	3.33	3.50	3.72	3.83	3.68	3.26	2.70	2.10	1.57	1.30	1.42	1.95	2.65	3.21	3.74	4.44	4.76	4.36	3.62	3.12	2.82	2.59	2.45	2.38	2.36	2.38	2.37	2.26	2.10	1.96	1.94	2.15	2.57	2.87	3.11	3.49	4.04	4.29	3.92	3.20	2.77	2.61	2.45	2.33	2.28	2.21	2.15	2.19	2.27	2.42	2.57	2.74	3.05	3.34	3.52	3.58	3.52	3.30	3.05	2.94	2.83	2.70	2.68	2.79	2.86	2.90	3.04	3.36	3.69	3.80	3.65	3.44	3.35	3.23	2.87	2.31	2.08	2.14	2.24	2.27	2.22	2.23	2.16	2.16	2.15	2.25	2.57	3.12	3.63	3.75	3.39	2.77	2.34	2.01	1.65	1.46	1.41	1.44	1.63	1.94	2.36	2.88	3.34	3.60	3.55	3.07	2.37	1.98	1.66	1.43	1.49	1.93	2.55	3.12	3.39	3.39
2.33	2.28	2.23	2.31	2.50	2.69	2.79	2.83	2.86	2.97	3.17	3.34	3.28	3.00	2.54	1.96	1.43	1.19	1.32	1.76	2.35	2.91	3.36	3.82	4.39	4.49	3.90	3.17	2.66	2.38	2.25	2.19	2.10	2.03	2.13	2.26	2.22	2.13	2.15	2.35	2.65	2.88	3.00	3.18	3.56	4.06	4.20	3.76	3.15	2.80	2.61	2.48	2.46	2.42	2.22	2.11	2.16	2.30	2.49	2.66	2.89	3.22	3.47	3.59	3.60	3.54	3.44	3.30	3.13	2.88	2.74	2.74	2.78	2.82	2.92	3.15	3.43	3.55	3.39	3.19	3.05	2.94	2.72	2.34	2.08	2.12	2.27	2.34	2.29	2.18	2.12	2.14	2.17	2.20	2.37	2.78	3.34	3.70	3.68	3.29	2.69	2.18	1.76	1.36	1.31	1.41	1.51	1.74	2.09	2.56	3.04	3.34	3.30	2.94	2.29	1.71	1.44	1.32	1.38	1.77	2.38	2.95	3.38	3.55	3.55
2.33	2.32	2.33	2.37	2.41	2.45	2.44	2.40	2.44	2.62	2.84	2.89	2.67	2.26	1.76	1.29	1.15	1.41	1.95	2.47	2.87	3.22	3.53	3.86	4.20	4.11	3.41	2.71	2.28	2.13	2.10	2.03	1.84	1.69	1.75	1.99	2.19	2.33	2.51	2.67	2.77	2.81	2.87	3.09	3.52	3.95	4.02	3.57	2.97	2.57	2.33	2.20	2.16	2.12	2.02	2.05	2.16	2.33	2.53	2.75	3.04	3.38	3.56	3.59	3.55	3.51	3.45	3.27	2.95	2.64	2.58	2.63	2.70	2.78	2.91	3.12	3.28	3.14	2.88	2.78	2.76	2.71	2.58	2.46	2.46	2.54	2.57	2.51	2.35	2.18	2.11	2.16	2.25	2.40	2.67	3.11	3.54	3.71	3.59	3.16	2.51	1.95	1.53	1.23	1.23	1.35	1.50	1.74	2.04	2.42	2.80	2.86	2.53	2.16	1.72	1.36	1.26	1.36	1.67	2.26	2.87	3.39	3.53	3.48	3.48
2.45	2.50	2.55	2.53	2.44	2.28	2.23	2.21	2.30	2.49	2.56	2.38	1.97	1.49	1.09	1.02	1.41	2.08	2.63	3.00	3.27	3.50	3.71	3.92	4.07	3.85	3.18	2.50	2.17	2.13	2.13	2.05	1.89	1.72	1.69	1.90	2.20	2.39	2.46	2.44	2.42	2.48	2.66	2.97	3.42	3.81	3.80	3.31	2.67	2.29	2.11	1.97	1.84	1.76	1.77	1.96	2.15	2.35	2.56	2.80	3.12	3.42	3.51	3.48	3.42	3.39	3.33	3.14	2.81	2.53	2.46	2.52	2.63	2.68	2.73	2.99	3.09	2.86	2.63	2.56	2.55	2.57	2.65	2.77	2.88	2.89	2.78	2.59	2.37	2.20	2.15	2.22	2.34	2.56	2.89	3.29	3.56	3.57	3.36	2.87	2.17	1.66	1.39	1.23	1.24	1.34	1.49	1.70	1.99	2.31	2.42	2.16	1.76	1.54	1.29	1.15	1.28	1.64	2.18	2.83	3.37	3.72	3.51	3.18	3.18
2.66	2.66	2.62	2.52	2.41	2.30	2.24	2.25	2.30	2.28	2.05	1.66	1.24	0.91	0.90	1.22	1.79	2.38	2.78	3.09	3.35	3.54	3.71	3.95	4.07	3.77	3.19	2.71	2.55	2.58	2.59	2.50	2.40	2.26	2.20	2.26	2.36	2.35	2.24	2.15	2.13	2.24	2.55	2.95	3.38	3.68	3.58	3.04	2.45	2.15	2.01	1.82	1.63	1.50	1.51	1.79	2.15	2.42	2.63	2.85	3.14	3.31	3.32	3.26	3.27	3.30	3.26	3.11	2.86	2.61	2.47	2.49	2.57	2.59	2.68	2.90	2.92	2.72	2.53	2.41	2.32	2.29	2.37	2.50	2.56	2.53	2.48	2.39	2.28	2.22	2.25	2.33	2.44	2.66	3.00	3.31	3.42	3.31	3.03	2.52	1.94	1.58	1.39	1.27	1.27	1.34	1.45	1.61	1.83	1.96	1.83	1.50	1.30	1.21	1.10	1.20	1.60	2.23	2.91	3.43	3.76	3.79	3.26	2.78	2.78
2.72	2.57	2.36	2.25	2.18	2.12	2.12	2.12	2.01	1.73	1.31	1.02	0.93	0.95	1.26	1.77	2.17	2.48	2.73	3.00	3.20	3.34	3.62	4.02	4.10	3.73	3.35	3.24	3.29	3.34	3.31	3.25	3.12	2.92	2.75	2.63	2.50	2.34	2.21	2.12	2.10	2.27	2.67	3.09	3.40	3.57	3.39	2.88	2.41	2.14	1.89	1.61	1.51	1.60	1.71	1.97	2.32	2.57	2.74	2.95	3.11	3.11	3.07	3.11	3.23	3.31	3.26	3.10	2.90	2.66	2.54	2.56	2.59	2.59	2.61	2.67	2.72	2.63	2.48	2.30	2.10	2.00	2.02	2.02	1.94	1.91	1.96	2.04	2.14	2.26	2.40	2.54	2.71	2.95	3.18	3.29	3.21	3.04	2.78	2.45	2.07	1.76	1.51	1.36	1.32	1.37	1.42	1.48	1.56	1.55	1.44	1.35	1.34	1.35	1.43	1.75	2.34	3.02	3.51	3.75	3.82	3.56	2.89	2.49	2.49
2.60	2.33	2.06	1.99	1.95	1.93	1.92	1.79	1.56	1.28	1.09	1.08	1.25	1.62	2.30	2.86	2.96	2.91	2.93	3.03	3.14	3.31	3.77	4.20	4.08	3.68	3.54	3.59	3.63	3.61	3.56	3.45	3.27	3.05	2.86	2.67	2.52	2.39	2.25	2.12	2.16	2.46	2.89	3.19	3.35	3.43	3.25	2.80	2.39	2.04	1.67	1.51	1.74	2.13	2.37	2.45	2.54	2.66	2.82	2.94	2.93	2.86	2.92	3.13	3.31	3.35	3.24	3.09	2.92	2.77	2.67	2.65	2.60	2.48	2.34	2.35	2.53	2.59	2.45	2.21	1.99	1.97	2.09	2.07	1.91	1.78	1.76	1.88	2.07	2.28	2.48	2.69	2.92	3.12	3.18	3.09	2.93	2.79	2.70	2.54	2.24	1.90	1.62	1.47	1.43	1.45	1.49	1.54	1.61	1.64	1.67	1.72	1.78	1.90	2.16	2.57	3.09	3.48	3.61	3.58	3.47	3.11	2.57	2.35	2.35
2.46	2.25	2.00	1.93	1.93	1.97	1.93	1.79	1.62	1.54	1.67	1.99	2.41	3.06	3.73	4.06	4.03	3.78	3.55	3.51	3.59	3.83	4.27	4.38	3.98	3.57	3.52	3.52	3.40	3.31	3.23	3.08	2.94	2.84	2.74	2.62	2.53	2.43	2.26	2.14	2.29	2.70	3.03	3.12	3.18	3.29	3.14	2.71	2.32	1.95	1.72	1.91	2.44	2.84	2.87	2.68	2.58	2.66	2.76	2.78	2.73	2.74	2.93	3.14	3.28	3.26	3.12	3.02	2.93	2.84	2.75	2.64	2.49	2.29	2.16	2.20	2.46	2.58	2.45	2.25	2.19	2.33	2.47	2.40	2.21	2.04	1.93	1.96	2.10	2.25	2.42	2.59	2.75	2.81	2.75	2.63	2.58	2.63	2.70	2.58	2.18	1.81	1.60	1.54	1.54	1.59	1.74	1.97	2.15	2.23	2.24	2.20	2.22	2.37	2.64	2.95	3.21	3.28	3.18	3.10	3.02	2.78	2.49	2.38	2.38
2.44	2.30	2.11	2.04	2.09	2.19	2.25	2.27	2.30	2.46	2.84	3.35	3.94	4.47	4.75	4.71	4.47	4.26	4.19	4.23	4.33	4.49	4.60	4.35	3.78	3.42	3.40	3.33	3.10	2.90	2.72	2.56	2.47	2.47	2.47	2.48	2.49	2.44	2.29	2.24	2.45	2.70	2.80	2.81	3.00	3.24	3.13	2.76	2.42	2.22	2.27	2.65	3.08	3.21	2.95	2.66	2.63	2.72	2.74	2.71	2.69	2.76	2.87	2.99	3.09	3.02	2.90	2.90	2.88	2.78	2.66	2.52	2.37	2.23	2.15	2.22	2.46	2.56	2.48	2.41	2.46	2.61	2.66	2.56	2.39	2.22	2.08	2.06	2.11	2.20	2.31	2.41	2.44	2.40	2.33	2.28	2.37	2.58	2.71	2.48	1.96	1.61	1.53	1.56	1.62	1.77	2.13	2.49	2.65	2.64	2.51	2.32	2.21	2.27	2.43	2.58	2.65	2.64	2.66	2.81	2.93	2.85	2.61	2.48	2.48
2.50	2.40	2.27	2.24	2.31	2.41	2.56	2.75	3.04	3.47	3.97	4.44	4.76	4.87	4.76	4.40	4.02	3.97	4.10	4.24	4.38	4.45	4.38	4.03	3.49	3.25	3.32	3.27	2.99	2.70	2.46	2.29	2.20	2.19	2.20	2.25	2.32	2.34	2.27	2.24	2.29	2.32	2.34	2.55	3.06	3.42	3.31	2.97	2.70	2.64	2.84	3.17	3.39	3.33	3.08	2.93	2.95	2.94	2.86	2.77	2.72	2.69	2.69	2.80	2.90	2.80	2.72	2.82	2.84	2.73	2.56	2.37	2.25	2.18	2.16	2.25	2.41	2.48	2.51	2.55	2.57	2.60	2.56	2.43	2.29	2.18	2.09	2.07	2.08	2.13	2.20	2.26	2.27	2.24	2.21	2.22	2.35	2.58	2.65	2.29	1.74	1.48	1.48	1.58	1.76	2.09	2.50	2.66	2.57	2.37	2.12	1.86	1.73	1.81	1.98	2.11	2.24	2.42	2.71	3.03	3.21	3.09	2.72	2.51	2.51
2.59	2.50	2.39	2.39	2.47	2.57	2.75	3.07	3.56	4.07	4.44	4.58	4.52	4.29	3.94	3.48	3.19	3.25	3.41	3.61	3.85	3.97	3.91	3.60	3.18	3.10	3.28	3.22	2.91	2.66	2.54	2.46	2.42	2.39	2.31	2.20	2.18	2.21	2.17	2.10	2.04	2.09	2.34	2.83	3.46	3.74	3.55	3.17	2.92	2.91	3.09	3.34	3.48	3.45	3.37	3.33	3.29	3.15	2.97	2.80	2.66	2.57	2.58	2.71	2.74	2.61	2.65	2.84	2.90	2.78	2.52	2.23	2.10	2.08	2.12	2.23	2.31	2.39	2.54	2.67	2.68	2.65	2.56	2.38	2.24	2.15	2.10	2.09	2.08	2.06	2.05	2.07	2.10	2.13	2.15	2.18	2.33	2.55	2.56	2.20	1.71	1.52	1.57	1.75	2.05	2.42	2.54	2.35	2.00	1.66	1.40	1.32	1.47	1.76	2.03	2.30	2.60	2.95	3.31	3.55	3.54	3.24	2.72	2.45	2.45
2.63	2.49	2.38	2.45	2.60	2.76	3.05	3.47	3.91	4.16	4.17	3.99	3.73	3.41	3.09	2.75	2.58	2.68	2.84	3.11	3.47	3.66	3.62	3.30	2.96	3.00	3.22	3.09	2.74	2.62	2.66	2.71	2.71	2.63	2.46	2.27	2.18	2.18	2.12	2.09	2.17	2.41	2.80	3.37	3.89	3.99	3.66	3.20	2.96	2.95	3.10	3.33	3.47	3.46	3.42	3.41	3.32	3.15	2.95	2.75	2.59	2.52	2.53	2.56	2.51	2.49	2.71	2.96	3.02	2.85	2.47	2.11	1.98	1.98	2.03	2.12	2.18	2.30	2.52	2.77	2.84	2.75	2.58	2.40	2.29	2.20	2.11	2.08	2.07	2.02	1.95	1.94	1.95	1.96	1.99	2.06	2.27	2.53	2.54	2.20	1.80	1.67	1.75	1.98	2.28	2.40	2.19	1.80	1.42	1.16	1.14	1.37	1.77	2.19	2.59	3.03	3.43	3.75	3.92	3.91	3.69	3.27	2.66	2.34	2.34
2.59	2.44	2.36	2.50	2.70	2.96	3.35	3.73	3.88	3.77	3.51	3.25	3.00	2.77	2.52	2.27	2.19	2.37	2.64	2.97	3.38	3.67	3.57	3.13	2.85	3.04	3.20	2.99	2.71	2.62	2.62	2.59	2.51	2.40	2.29	2.19	2.18	2.19	2.17	2.25	2.47	2.74	3.16	3.75	4.15	4.07	3.59	3.05	2.81	2.84	3.01	3.25	3.35	3.25	3.13	3.06	2.97	2.84	2.74	2.64	2.54	2.47	2.41	2.35	2.35	2.53	2.87	3.10	3.10	2.81	2.34	2.01	1.86	1.84	1.88	1.96	2.02	2.14	2.44	2.85	2.97	2.73	2.46	2.30	2.19	2.05	1.96	1.98	2.01	2.00	1.97	1.97	1.96	1.91	1.89	2.00	2.30	2.57	2.55	2.25	1.92	1.81	1.86	2.03	2.15	1.98	1.65	1.35	1.20	1.24	1.50	1.90	2.33	2.76	3.26	3.74	4.08	4.23	4.18	3.97	3.65	3.17	2.53	2.25	2.25
2.56	2.47	2.43	2.55	2.73	3.01	3.38	3.53	3.37	3.08	2.81	2.55	2.34	2.17	1.99	1.91	2.10	2.46	2.79	3.11	3.57	3.88	3.58	3.00	2.92	3.18	3.21	2.99	2.79	2.67	2.58	2.43	2.27	2.13	2.05	2.01	2.07	2.15	2.22	2.38	2.60	2.88	3.35	3.94	4.19	3.92	3.34	2.79	2.60	2.70	2.92	3.14	3.18	2.97	2.72	2.55	2.42	2.34	2.41	2.48	2.47	2.40	2.30	2.28	2.41	2.68	3.03	3.20	3.05	2.65	2.21	1.92	1.74	1.71	1.77	1.84	1.88	2.00	2.39	2.94	3.03	2.60	2.24	2.09	1.92	1.75	1.75	1.88	1.97	1.97	1.99	2.05	2.05	2.00	2.01	2.17	2.43	2.62	2.60	2.34	2.05	1.93	1.91	1.92	1.82	1.57	1.40	1.39	1.54	1.81	2.18	2.56	2.93	3.37	3.82	4.18	4.39	4.38	4.15	3.80	3.42	2.91	2.36	2.17	2.17
2.61	2.57	2.55	2.60	2.73	2.96	3.15	3.02	2.65	2.31	2.08	1.88	1.73	1.64	1.71	1.99	2.47	2.94	3.26	3.55	3.90	3.94	3.39	2.92	3.04	3.21	3.09	2.88	2.74	2.68	2.63	2.51	2.35	2.17	1.98	1.84	1.92	2.11	2.27	2.45	2.70	3.03	3.50	3.97	4.02	3.56	2.97	2.53	2.42	2.59	2.89	3.11	3.08	2.81	2.49	2.19	1.97	1.96	2.11	2.25	2.32	2.35	2.36	2.41	2.57	2.82	3.11	3.16	2.89	2.49	2.14	1.88	1.71	1.69	1.73	1.78	1.81	1.95	2.38	2.98	2.99	2.42	2.06	1.88	1.72	1.68	1.79	1.92	1.95	1.95	2.01	2.11	2.15	2.16	2.22	2.36	2.54	2.70	2.69	2.44	2.13	1.97	1.89	1.81	1.68	1.58	1.66	1.90	2.20	2.52	2.84	3.14	3.41	3.73	4.04	4.29	4.38	4.21	3.82	3.43	3.09	2.64	2.22	2.12	2.12
2.72	2.69	2.65	2.66	2.71	2.80	2.78	2.49	2.08	1.80	1.68	1.61	1.60	1.75	2.16	2.75	3.27	3.62	3.81	3.90	3.88	3.60	3.00	2.76	2.94	2.97	2.77	2.65	2.63	2.67	2.68	2.63	2.53	2.31	2.04	1.92	2.07	2.29	2.45	2.64	2.90	3.18	3.54	3.83	3.70	3.20	2.67	2.34	2.32	2.58	2.98	3.16	3.05	2.77	2.45	2.14	1.95	1.95	2.01	2.07	2.18	2.31	2.41	2.52	2.68	2.90	3.06	3.00	2.73	2.40	2.11	1.88	1.74	1.70	1.71	1.74	1.79	1.98	2.42	2.95	2.91	2.39	2.05	1.87	1.86	1.98	2.06	2.02	1.96	1.96	2.05	2.15	2.19	2.21	2.26	2.40	2.63	2.80	2.76	2.48	2.11	1.91	1.84	1.80	1.77	1.82	2.04	2.34	2.63	2.91	3.16	3.30	3.42	3.64	3.92	4.12	4.07	3.69	3.22	2.95	2.76	2.44	2.18	2.12	2.12
2.82	2.76	2.68	2.65	2.63	2.57	2.44	2.19	1.98	1.93	1.98	2.06	2.28	2.73	3.32	3.85	4.13	4.12	3.98	3.74	3.42	3.10	2.81	2.70	2.74	2.63	2.45	2.48	2.61	2.67	2.64	2.60	2.52	2.42	2.36	2.39	2.47	2.55	2.61	2.74	2.91	3.11	3.41	3.59	3.39	2.95	2.53	2.30	2.37	2.72	3.09	3.19	3.01	2.76	2.55	2.40	2.32	2.28	2.22	2.17	2.20	2.27	2.36	2.48	2.66	2.82	2.88	2.80	2.61	2.33	2.06	1.83	1.69	1.67	1.70	1.77	1.85	2.04	2.44	2.91	2.96	2.60	2.29	2.23	2.37	2.45	2.29	2.09	1.99	1.99	2.05	2.11	2.14	2.16	2.23	2.44	2.71	2.83	2.74	2.42	2.02	1.84	1.82	1.85	1.91	1.99	2.16	2.37	2.57	2.75	2.82	2.80	2.89	3.26	3.68	3.86	3.69	3.24	2.87	2.71	2.55	2.29	2.12	2.12	2.12
2.87	2.76	2.63	2.58	2.51	2.41	2.31	2.22	2.19	2.29	2.51	2.86	3.33	3.85	4.25	4.42	4.27	3.90	3.57	3.19	2.88	2.82	2.85	2.81	2.70	2.50	2.33	2.38	2.59	2.65	2.54	2.45	2.40	2.43	2.54	2.63	2.60	2.53	2.48	2.54	2.68	2.93	3.27	3.41	3.16	2.78	2.49	2.34	2.48	2.83	3.09	3.07	2.89	2.72	2.64	2.63	2.65	2.66	2.58	2.44	2.34	2.29	2.30	2.37	2.50	2.61	2.59	2.58	2.53	2.32	2.05	1.81	1.67	1.66	1.74	1.84	1.96	2.14	2.49	2.99	3.19	2.96	2.71	2.75	2.84	2.68	2.31	2.10	2.01	1.97	2.01	2.07	2.10	2.14	2.26	2.51	2.72	2.76	2.63	2.31	1.94	1.80	1.80	1.85	1.93	2.01	2.11	2.16	2.16	2.12	2.01	2.05	2.40	3.02	3.57	3.74	3.54	3.19	2.91	2.70	2.48	2.20	2.03	2.06	2.06
2.87	2.74	2.58	2.52	2.45	2.39	2.39	2.38	2.38	2.50	2.86	3.40	3.90	4.21	4.29	4.09	3.59	3.17	2.93	2.62	2.52	2.72	2.89	2.92	2.80	2.56	2.35	2.35	2.58	2.63	2.47	2.35	2.32	2.34	2.37	2.37	2.34	2.31	2.29	2.38	2.59	2.91	3.23	3.25	2.90	2.57	2.45	2.41	2.55	2.81	2.96	2.90	2.75	2.67	2.67	2.65	2.67	2.69	2.64	2.55	2.43	2.29	2.22	2.21	2.26	2.28	2.27	2.45	2.58	2.43	2.14	1.90	1.77	1.76	1.83	1.94	2.07	2.23	2.62	3.18	3.39	3.17	2.94	2.94	2.85	2.52	2.21	2.07	2.00	1.96	1.99	2.05	2.11	2.18	2.29	2.50	2.67	2.67	2.52	2.23	1.90	1.76	1.77	1.83	1.87	1.88	1.87	1.80	1.66	1.56	1.62	1.91	2.48	3.17	3.68	3.79	3.55	3.18	2.84	2.57	2.33	2.05	1.91	1.96	1.96
2.84	2.73	2.60	2.53	2.45	2.43	2.49	2.51	2.54	2.77	3.26	3.73	3.94	3.93	3.73	3.32	2.91	2.68	2.46	2.23	2.29	2.56	2.82	2.91	2.76	2.48	2.31	2.40	2.66	2.69	2.52	2.38	2.32	2.26	2.15	2.05	2.07	2.17	2.27	2.43	2.67	2.98	3.19	3.04	2.62	2.39	2.46	2.52	2.62	2.76	2.86	2.81	2.73	2.74	2.73	2.64	2.56	2.47	2.39	2.36	2.31	2.19	2.11	2.08	2.04	2.05	2.22	2.60	2.80	2.61	2.27	2.03	1.89	1.85	1.88	1.99	2.08	2.24	2.69	3.24	3.41	3.11	2.82	2.71	2.47	2.19	2.05	2.02	2.01	2.00	2.00	2.04	2.12	2.21	2.34	2.53	2.67	2.62	2.46	2.20	1.88	1.76	1.80	1.89	1.92	1.86	1.78	1.67	1.58	1.67	1.98	2.38	2.91	3.47	3.85	3.88	3.56	3.06	2.66	2.41	2.18	1.96	1.88	1.93	1.93
2.84	2.78	2.68	2.57	2.47	2.49	2.58	2.64	2.78	3.16	3.61	3.80	3.70	3.50	3.22	2.85	2.60	2.41	2.14	2.02	2.15	2.41	2.79	2.95	2.69	2.33	2.27	2.45	2.72	2.73	2.58	2.43	2.33	2.24	2.06	1.86	1.89	2.09	2.29	2.50	2.73	2.99	3.08	2.79	2.34	2.25	2.47	2.60	2.63	2.71	2.82	2.85	2.84	2.85	2.78	2.60	2.41	2.25	2.13	2.07	2.04	2.02	2.03	2.04	2.07	2.24	2.56	2.91	2.98	2.68	2.29	2.05	1.91	1.85	1.86	1.93	1.98	2.18	2.67	3.19	3.32	3.02	2.70	2.48	2.19	1.97	1.91	1.95	2.00	2.03	2.05	2.09	2.17	2.27	2.41	2.59	2.65	2.53	2.36	2.12	1.85	1.80	1.89	2.02	2.11	2.16	2.18	2.17	2.24	2.50	2.81	3.04	3.34	3.71	3.97	3.94	3.58	3.11	2.75	2.46	2.21	2.05	2.03	2.06	2.06
2.91	2.88	2.77	2.60	2.50	2.55	2.69	2.82	3.08	3.50	3.73	3.64	3.43	3.24	2.99	2.69	2.44	2.19	2.04	2.10	2.30	2.58	2.94	3.04	2.73	2.38	2.34	2.49	2.67	2.68	2.57	2.46	2.38	2.27	2.08	1.87	1.87	2.07	2.28	2.47	2.72	2.96	2.90	2.44	2.01	2.06	2.42	2.61	2.59	2.63	2.79	2.91	2.89	2.81	2.66	2.45	2.25	2.12	2.01	1.89	1.86	1.92	2.03	2.16	2.35	2.59	2.85	3.03	2.97	2.62	2.23	1.97	1.83	1.80	1.83	1.89	1.99	2.24	2.70	3.10	3.20	2.98	2.67	2.39	2.12	1.95	1.88	1.88	1.92	2.01	2.11	2.18	2.25	2.33	2.43	2.53	2.50	2.38	2.24	2.06	1.90	1.91	2.01	2.14	2.27	2.44	2.64	2.85	3.12	3.36	3.46	3.47	3.59	3.83	4.00	3.95	3.62	3.17	2.79	2.47	2.25	2.16	2.15	2.16	2.16
3.02	2.94	2.77	2.60	2.53	2.61	2.77	3.00	3.37	3.63	3.61	3.41	3.23	3.07	2.78	2.46	2.24	2.15	2.25	2.43	2.60	2.78	2.98	3.02	2.80	2.50	2.39	2.45	2.56	2.59	2.55	2.48	2.38	2.25	2.14	2.05	2.04	2.13	2.23	2.41	2.67	2.80	2.49	1.91	1.64	1.89	2.35	2.63	2.62	2.57	2.69	2.81	2.75	2.59	2.44	2.28	2.14	2.06	1.95	1.85	1.85	1.93	2.07	2.23	2.43	2.63	2.81	2.96	2.90	2.58	2.20	1.92	1.77	1.75	1.79	1.89	2.06	2.30	2.57	2.86	3.04	2.96	2.66	2.30	2.09	1.99	1.90	1.85	1.89	2.00	2.13	2.22	2.29	2.35	2.38	2.39	2.35	2.24	2.15	2.11	2.07	2.10	2.20	2.30	2.40	2.56	2.80	3.11	3.41	3.50	3.43	3.42	3.59	3.82	3.95	3.93	3.62	3.09	2.66	2.37	2.23	2.18	2.18	2.18	2.18
3.04	2.92	2.71	2.59	2.57	2.68	2.84	3.06	3.34	3.44	3.30	3.10	2.98	2.77	2.39	2.20	2.23	2.32	2.41	2.44	2.44	2.55	2.82	3.03	2.94	2.63	2.41	2.38	2.45	2.50	2.49	2.44	2.32	2.20	2.19	2.21	2.20	2.16	2.31	2.36	2.53	2.36	1.79	1.36	1.42	1.82	2.32	2.70	2.72	2.56	2.58	2.64	2.54	2.39	2.26	2.18	2.13	2.02	1.85	1.78	1.85	1.96	2.08	2.20	2.37	2.57	2.75	2.91	2.86	2.54	2.17	1.89	1.72	1.64	1.67	1.81	1.97	2.08	2.23	2.57	2.93	2.99	2.66	2.24	2.03	1.92	1.80	1.79	1.89	2.04	2.15	2.23	2.29	2.32	2.32	2.27	2.20	2.11	2.13	2.25	2.30	2.32	2.40	2.48	2.54	2.64	2.79	2.93	2.96	2.82	2.81	3.08	3.44	3.69	3.86	3.88	3.55	3.00	2.59	2.34	2.23	2.20	2.20	2.20	2.20
3.03	2.94	2.76	2.65	2.64	2.72	2.84	2.97	3.07	3.05	2.89	2.78	2.68	2.38	2.12	2.22	2.34	2.28	2.15	2.00	2.01	2.32	2.83	3.18	3.07	2.70	2.48	2.43	2.42	2.40	2.41	2.41	2.35	2.26	2.22	2.18	2.10	2.06	2.10	2.22	2.19	1.77	1.34	1.30	1.57	1.93	2.38	2.81	2.84	2.67	2.63	2.62	2.51	2.35	2.24	2.24	2.20	1.99	1.77	1.76	1.87	2.01	2.13	2.33	2.58	2.75	2.83	2.88	2.77	2.40	2.04	1.78	1.57	1.47	1.53	1.67	1.76	1.82	2.01	2.44	2.91	3.01	2.66	2.23	2.03	1.87	1.73	1.77	1.95	2.12	2.22	2.27	2.30	2.32	2.29	2.23	2.16	2.17	2.30	2.48	2.53	2.52	2.54	2.54	2.52	2.52	2.52	2.45	2.32	2.27	2.49	2.96	3.33	3.52	3.69	3.71	3.33	2.80	2.45	2.26	2.20	2.21	2.22	2.22	2.22
3.14	3.08	2.89	2.71	2.64	2.68	2.75	2.79	2.79	2.76	2.74	2.64	2.44	2.13	2.10	2.24	2.17	1.90	1.72	1.71	1.94	2.47	3.09	3.39	3.14	2.71	2.53	2.47	2.41	2.36	2.38	2.43	2.43	2.30	2.12	1.96	1.86	1.87	1.95	2.00	1.85	1.60	1.59	1.80	2.01	2.21	2.58	2.96	3.01	2.87	2.78	2.70	2.58	2.45	2.37	2.38	2.28	2.05	1.91	1.90	1.94	2.05	2.23	2.52	2.73	2.74	2.71	2.73	2.60	2.26	1.90	1.58	1.37	1.33	1.43	1.53	1.61	1.73	1.97	2.42	2.86	2.98	2.73	2.41	2.17	1.97	1.85	1.94	2.12	2.25	2.29	2.30	2.31	2.34	2.34	2.33	2.35	2.46	2.61	2.73	2.73	2.63	2.52	2.41	2.29	2.19	2.13	2.09	2.12	2.32	2.65	2.96	3.13	3.27	3.50	3.54	3.17	2.68	2.37	2.20	2.15	2.20	2.22	2.21	2.21
3.28	3.13	2.83	2.59	2.52	2.58	2.65	2.65	2.64	2.70	2.71	2.56	2.22	1.98	1.99	2.00	1.82	1.64	1.64	1.86	2.28	2.84	3.41	3.53	3.09	2.64	2.47	2.40	2.32	2.30	2.35	2.44	2.44	2.25	1.97	1.84	1.82	1.88	1.94	1.96	1.94	1.99	2.14	2.25	2.35	2.53	2.83	3.12	3.16	3.00	2.82	2.69	2.58	2.50	2.45	2.44	2.37	2.23	2.11	1.99	1.94	2.03	2.24	2.45	2.48	2.38	2.43	2.57	2.52	2.20	1.76	1.39	1.23	1.26	1.36	1.42	1.48	1.63	1.88	2.29	2.78	3.05	3.00	2.71	2.31	1.98	1.97	2.19	2.33	2.36	2.33	2.29	2.30	2.36	2.40	2.47	2.57	2.68	2.78	2.85	2.78	2.56	2.33	2.16	2.01	1.93	1.95	2.01	2.13	2.30	2.45	2.56	2.75	3.10	3.50	3.57	3.24	2.80	2.47	2.25	2.17	2.17	2.17	2.15	2.15
3.25	2.96	2.52	2.35	2.39	2.52	2.60	2.58	2.58	2.65	2.68	2.33	2.00	1.85	1.86	1.85	1.81	1.84	2.06	2.46	2.86	3.26	3.60	3.45	2.84	2.49	2.37	2.22	2.13	2.19	2.32	2.42	2.42	2.25	2.05	2.01	2.07	2.11	2.13	2.17	2.24	2.29	2.28	2.32	2.48	2.74	3.02	3.24	3.24	3.04	2.87	2.75	2.65	2.53	2.44	2.44	2.46	2.36	2.16	1.95	1.88	1.96	2.13	2.22	2.17	2.18	2.39	2.61	2.53	2.09	1.56	1.23	1.15	1.21	1.32	1.40	1.50	1.67	1.87	2.24	2.84	3.30	3.31	2.83	2.18	1.93	2.19	2.46	2.47	2.39	2.31	2.26	2.28	2.34	2.42	2.53	2.61	2.68	2.77	2.81	2.68	2.38	2.11	1.94	1.83	1.82	1.85	1.88	1.94	2.04	2.13	2.31	2.73	3.36	3.78	3.74	3.33	2.81	2.43	2.23	2.17	2.15	2.14	2.13	2.13
3.01	2.70	2.31	2.27	2.41	2.58	2.62	2.54	2.50	2.75	2.40	2.16	1.97	1.95	2.06	2.17	2.29	2.50	2.83	3.13	3.29	3.42	3.45	3.10	2.64	2.45	2.30	2.06	1.99	2.11	2.27	2.37	2.41	2.35	2.29	2.31	2.33	2.29	2.25	2.25	2.25	2.19	2.21	2.39	2.67	2.96	3.21	3.33	3.26	3.11	2.98	2.88	2.77	2.62	2.48	2.46	2.47	2.35	2.10	1.89	1.84	1.93	2.05	2.09	2.13	2.32	2.61	2.71	2.38	1.72	1.21	1.05	1.08	1.19	1.32	1.46	1.65	1.87	2.09	2.46	3.10	3.58	3.41	2.68	2.06	2.13	2.61	2.76	2.58	2.40	2.31	2.28	2.32	2.37	2.46	2.54	2.56	2.61	2.71	2.73	2.55	2.24	1.98	1.84	1.76	1.74	1.71	1.71	1.83	2.04	2.29	2.73	3.40	3.98	4.12	3.82	3.23	2.62	2.28	2.17	2.19	2.21	2.20	2.17	2.17
2.80	2.64	2.45	2.52	2.67	2.73	2.67	2.53	2.45	2.68	2.38	2.27	2.23	2.33	2.52	2.72	2.93	3.13	3.27	3.27	3.17	3.10	3.03	2.82	2.65	2.51	2.28	2.06	2.05	2.17	2.26	2.33	2.42	2.47	2.46	2.40	2.31	2.23	2.19	2.15	2.11	2.13	2.30	2.60	2.91	3.17	3.32	3.29	3.16	3.04	2.92	2.82	2.74	2.62	2.49	2.47	2.45	2.30	2.07	1.88	1.87	1.98	2.08	2.15	2.30	2.56	2.72	2.51	1.88	1.21	0.91	0.92	1.06	1.23	1.39	1.53	1.72	1.97	2.31	2.76	3.35	3.69	3.34	2.60	2.36	2.75	3.14	3.03	2.70	2.47	2.39	2.38	2.42	2.47	2.54	2.57	2.57	2.62	2.70	2.67	2.46	2.12	1.89	1.81	1.75	1.70	1.70	1.84	2.12	2.48	2.94	3.55	4.19	4.44	4.22	3.65	2.99	2.53	2.29	2.24	2.28	2.30	2.24	2.19	2.19
2.80	2.80	2.84	2.96	3.00	2.88	2.69	2.55	2.50	2.49	2.49	2.49	2.54	2.70	2.87	3.00	3.11	3.14	3.06	2.85	2.61	2.50	2.59	2.71	2.73	2.56	2.33	2.23	2.28	2.33	2.34	2.39	2.52	2.60	2.51	2.30	2.19	2.16	2.14	2.14	2.18	2.32	2.56	2.83	3.06	3.19	3.14	2.96	2.80	2.73	2.70	2.73	2.73	2.61	2.48	2.46	2.45	2.33	2.13	1.97	1.96	2.06	2.17	2.28	2.46	2.64	2.55	2.05	1.37	0.97	0.89	1.00	1.17	1.35	1.54	1.67	1.79	2.01	2.39	2.92	3.49	3.74	3.45	3.07	3.14	3.41	3.39	3.04	2.68	2.49	2.44	2.45	2.50	2.54	2.57	2.58	2.59	2.63	2.68	2.61	2.34	1.96	1.79	1.79	1.80	1.79	1.86	2.10	2.53	3.13	3.77	4.34	4.64	4.49	3.96	3.29	2.80	2.57	2.44	2.37	2.34	2.29	2.20	2.16	2.16
2.92	2.98	3.10	3.16	3.08	2.87	2.68	2.57	2.55	2.57	2.61	2.65	2.72	2.84	2.90	2.88	2.84	2.75	2.54	2.24	2.03	2.07	2.40	2.80	2.87	2.64	2.46	2.44	2.48	2.50	2.53	2.63	2.76	2.76	2.58	2.36	2.28	2.27	2.23	2.27	2.42	2.64	2.84	2.97	3.03	2.96	2.73	2.48	2.41	2.51	2.70	2.86	2.82	2.62	2.46	2.45	2.46	2.37	2.22	2.10	2.06	2.14	2.26	2.37	2.51	2.51	2.19	1.61	1.17	1.04	1.10	1.23	1.35	1.49	1.63	1.77	1.94	2.18	2.57	3.13	3.74	3.99	3.83	3.61	3.54	3.42	3.10	2.69	2.41	2.36	2.41	2.48	2.55	2.58	2.58	2.58	2.59	2.61	2.64	2.52	2.17	1.84	1.76	1.82	1.92	2.03	2.27	2.57	3.10	3.81	4.38	4.68	4.61	4.12	3.47	2.95	2.70	2.62	2.50	2.38	2.31	2.23	2.16	2.13	2.13
3.04	3.08	3.13	3.12	2.99	2.83	2.70	2.63	2.63	2.66	2.68	2.69	2.71	2.72	2.67	2.62	2.57	2.38	2.05	1.80	1.81	2.06	2.58	3.03	3.06	2.79	2.58	2.54	2.55	2.59	2.71	2.88	2.96	2.88	2.69	2.53	2.49	2.46	2.38	2.42	2.58	2.75	2.82	2.86	2.82	2.61	2.31	2.14	2.22	2.54	2.93	3.07	2.87	2.58	2.44	2.46	2.48	2.39	2.25	2.14	2.12	2.21	2.31	2.38	2.43	2.29	1.84	1.37	1.18	1.20	1.30	1.38	1.48	1.61	1.70	1.83	2.08	2.47	2.97	3.58	4.15	4.26	3.94	3.52	3.20	2.91	2.56	2.26	2.16	2.25	2.39	2.51	2.58	2.59	2.57	2.57	2.57	2.58	2.58	2.41	2.08	1.87	1.87	1.97	2.10	2.35	2.77	3.28	3.86	4.37	4.64	4.59	4.19	3.56	3.01	2.68	2.60	2.55	2.38	2.26	2.21	2.16	2.14	2.14	2.14
3.19	3.20	3.21	3.18	3.05	2.86	2.75	2.75	2.78	2.75	2.68	2.61	2.57	2.52	2.51	2.52	2.41	2.11	1.85	1.86	2.08	2.41	2.88	3.24	3.22	2.94	2.70	2.62	2.61	2.67	2.81	2.94	2.97	2.87	2.75	2.71	2.71	2.67	2.55	2.52	2.59	2.62	2.65	2.71	2.59	2.29	2.07	2.05	2.28	2.78	3.23	3.23	2.89	2.59	2.48	2.49	2.48	2.36	2.20	2.10	2.11	2.19	2.26	2.30	2.31	2.10	1.68	1.40	1.35	1.40	1.45	1.49	1.57	1.69	1.82	2.02	2.33	2.78	3.40	4.03	4.38	4.20	3.59	3.06	2.74	2.46	2.18	2.04	2.12	2.30	2.44	2.53	2.56	2.54	2.52	2.50	2.51	2.51	2.48	2.30	2.03	1.92	1.98	2.10	2.28	2.64	3.22	3.81	4.26	4.53	4.55	4.24	3.68	3.10	2.70	2.53	2.48	2.38	2.19	2.08	2.03	2.03	2.09	2.13	2.13
3.44	3.42	3.38	3.26	3.07	2.85	2.75	2.79	2.81	2.70	2.56	2.50	2.48	2.49	2.54	2.49	2.25	1.99	1.99	2.21	2.44	2.68	3.07	3.34	3.31	3.07	2.81	2.70	2.69	2.76	2.86	2.93	2.89	2.82	2.85	2.93	2.94	2.86	2.76	2.65	2.56	2.52	2.58	2.56	2.32	2.06	2.01	2.13	2.49	3.11	3.49	3.34	2.91	2.62	2.50	2.48	2.45	2.31	2.14	2.09	2.11	2.42	2.19	2.22	2.20	1.98	1.68	1.58	1.60	1.62	1.61	1.62	1.68	1.80	2.00	2.33	2.73	3.25	3.88	4.32	4.27	3.79	3.16	2.71	2.44	2.21	2.04	2.07	2.27	2.47	2.53	2.53	2.51	2.48	2.45	2.44	2.44	2.45	2.39	2.18	1.96	1.91	2.00	2.15	2.42	2.92	3.48	3.91	4.20	4.32	4.17	3.73	3.21	2.79	2.54	2.43	2.39	2.30	2.14	1.99	1.92	1.96	2.05	2.09	2.09
3.72	3.60	3.37	3.14	2.94	2.75	2.66	2.66	2.62	2.49	2.40	2.44	2.54	2.61	2.58	2.38	2.13	2.06	2.21	2.39	2.48	2.68	3.10	3.38	3.35	3.13	2.86	2.71	2.72	2.81	2.90	2.92	2.88	2.90	3.00	3.05	2.97	2.86	2.79	2.71	2.54	2.42	2.38	2.24	1.99	1.92	2.06	2.26	2.73	3.42	3.68	3.36	2.87	2.58	2.48	2.45	2.40	2.26	2.12	2.13	2.19	2.23	2.22	2.21	2.17	1.97	1.76	1.74	1.79	1.79	1.76	1.79	1.91	2.07	2.32	2.68	3.23	3.89	4.40	4.41	3.96	3.39	2.91	2.54	2.29	2.16	2.13	2.27	2.50	2.63	2.61	2.56	2.54	2.54	2.51	2.48	2.47	2.47	2.38	2.15	1.96	1.93	2.01	2.15	2.45	2.92	3.38	3.75	4.00	4.01	3.72	3.27	2.90	2.62	2.41	2.32	2.34	2.32	2.20	2.08	2.06	2.09	2.12	2.13	2.13
3.86	3.58	3.10	2.82	2.65	2.51	2.45	2.45	2.45	2.38	2.41	2.58	2.76	2.80	2.59	2.30	2.14	2.14	2.21	2.26	2.38	2.68	3.17	3.42	3.33	3.10	2.83	2.67	2.69	2.80	2.88	2.91	2.91	2.96	3.00	2.90	2.70	2.56	2.48	2.41	2.27	2.13	2.04	1.91	1.83	1.94	2.13	2.38	3.01	3.70	3.75	3.24	2.73	2.50	2.42	2.40	2.34	2.22	2.14	2.21	2.30	2.31	2.27	2.24	2.17	1.99	1.85	1.85	1.90	1.92	1.96	2.09	2.31	2.56	2.86	3.26	3.82	4.39	4.57	4.19	3.58	3.16	2.85	2.54	2.39	2.40	2.42	2.53	2.71	2.74	2.68	2.70	2.73	2.71	2.66	2.62	2.60	2.54	2.39	2.17	2.02	2.01	2.07	2.16	2.40	2.81	3.31	3.74	3.94	3.80	3.42	3.05	2.77	2.54	2.32	2.24	2.29	2.29	2.20	2.17	2.23	2.24	2.18	2.15	2.15
3.77	3.38	2.73	2.43	2.28	2.16	2.19	2.34	2.46	2.52	2.66	2.90	3.04	2.92	2.58	2.29	2.16	2.10	2.03	2.11	2.39	2.79	3.26	3.43	3.29	3.06	2.82	2.66	2.66	2.73	2.78	2.78	2.76	2.79	2.76	2.57	2.32	2.11	1.91	1.78	1.77	1.80	1.83	1.85	1.94	2.10	2.25	2.59	3.37	3.91	3.67	3.01	2.59	2.43	2.37	2.33	2.30	2.23	2.23	2.34	2.40	2.35	2.30	2.26	2.17	2.02	1.95	1.98	2.03	2.08	2.22	2.50	2.86	3.25	3.60	3.95	4.35	4.62	4.41	3.79	3.34	3.16	2.99	2.82	2.82	2.88	2.81	2.81	2.89	2.85	2.85	2.95	2.96	2.85	2.76	2.72	2.67	2.54	2.37	2.19	2.11	2.14	2.20	2.33	2.69	3.23	3.71	4.00	3.97	3.64	3.24	2.93	2.70	2.48	2.27	2.18	2.23	2.24	2.20	2.24	2.27	2.22	2.15	2.13	2.13
3.47	3.04	2.44	2.24	2.16	2.11	2.20	2.39	2.54	2.67	2.84	3.01	2.99	2.72	2.38	2.19	2.11	2.04	2.03	2.25	2.58	2.94	3.32	3.42	3.27	3.06	2.84	2.70	2.66	2.69	2.68	2.61	2.54	2.52	2.45	2.23	1.94	1.68	1.41	1.32	1.44	1.66	1.86	2.05	2.26	2.41	2.58	3.06	3.77	3.96	3.46	2.82	2.51	2.40	2.34	2.32	2.33	2.37	2.47	2.57	2.52	2.38	2.30	2.27	2.22	2.12	2.07	2.10	2.17	2.28	2.55	2.95	3.42	3.81	4.06	4.25	4.43	4.44	4.08	3.58	3.38	3.34	3.23	3.22	3.37	3.39	3.25	3.19	3.21	3.18	3.24	3.27	3.11	2.92	2.81	2.74	2.64	2.51	2.37	2.26	2.24	2.30	2.42	2.73	3.28	3.80	4.08	4.09	3.83	3.42	3.06	2.84	2.67	2.45	2.22	2.12	2.20	2.27	2.29	2.32	2.27	2.19	2.12	2.11	2.11
3.05	2.77	2.42	2.37	2.40	2.44	2.51	2.56	2.61	2.68	2.78	2.81	2.63	2.31	2.09	2.04	2.06	2.09	2.22	2.51	2.80	3.09	3.38	3.44	3.27	3.06	2.90	2.79	2.76	2.74	2.67	2.53	2.44	2.37	2.22	1.94	1.62	1.37	1.19	1.24	1.47	1.76	2.08	2.41	2.65	2.80	3.05	3.52	3.94	3.82	3.23	2.71	2.46	2.36	2.34	2.37	2.45	2.57	2.68	2.66	2.47	2.28	2.23	2.27	2.30	2.25	2.19	2.20	2.29	2.50	2.89	3.32	3.67	3.84	3.90	3.95	4.02	3.99	3.77	3.52	3.45	3.39	3.32	3.46	3.66	3.69	3.65	3.68	3.71	3.71	3.72	3.55	3.22	2.98	2.85	2.75	2.63	2.50	2.39	2.35	2.40	2.50	2.72	3.18	3.71	4.01	4.04	3.84	3.48	3.14	2.92	2.80	2.64	2.38	2.10	2.01	2.17	2.32	2.36	2.35	2.30	2.23	2.14	2.11	2.11
2.81	2.79	2.82	2.89	2.92	2.90	2.80	2.72	2.70	2.71	2.68	2.55	2.28	2.02	1.91	1.96	2.07	2.19	2.41	2.72	2.96	3.21	3.42	3.41	3.24	3.07	2.95	2.86	2.83	2.80	2.68	2.51	2.38	2.23	1.99	1.68	1.41	1.26	1.25	1.41	1.69	2.06	2.46	2.77	2.93	3.05	3.26	3.60	3.81	3.55	3.00	2.58	2.33	2.26	2.33	2.43	2.53	2.60	2.53	2.33	2.12	2.05	2.13	2.26	2.32	2.27	2.23	2.27	2.38	2.64	3.04	3.34	3.45	3.40	3.32	3.34	3.49	3.64	3.60	3.44	3.30	3.21	3.23	3.44	3.58	3.57	3.67	3.82	3.90	3.91	3.82	3.58	3.25	2.99	2.85	2.76	2.64	2.50	2.44	2.47	2.56	2.72	3.01	3.47	3.80	3.85	3.70	3.41	3.08	2.89	2.83	2.76	2.55	2.18	1.91	1.93	2.21	2.39	2.42	2.41	2.37	2.31	2.19	2.13	2.13
2.92	3.09	3.35	3.43	3.37	3.19	2.98	2.90	2.87	2.78	2.59	2.33	2.06	1.90	1.89	2.00	2.15	2.33	2.62	2.91	3.11	3.29	3.37	3.29	3.17	3.08	2.99	2.88	2.80	2.73	2.61	2.44	2.26	2.05	1.78	1.53	1.38	1.36	1.46	1.69	2.08	2.55	2.89	3.04	3.05	3.06	3.19	3.45	3.57	3.27	2.78	2.37	2.12	2.14	2.32	2.46	2.50	2.41	2.16	1.91	1.83	1.91	2.09	2.27	2.29	2.20	2.18	2.26	2.40	2.63	2.93	3.02	2.95	2.87	2.82	2.91	3.24	3.59	3.61	3.34	3.12	3.06	3.12	3.24	3.29	3.26	3.35	3.49	3.55	3.51	3.37	3.17	3.04	2.91	2.82	2.72	2.59	2.49	2.47	2.53	2.63	2.81	3.09	3.41	3.54	3.44	3.25	2.96	2.74	2.74	2.79	2.68	2.36	1.95	1.79	1.97	2.34	2.50	2.53	2.52	2.47	2.38	2.22	2.14	2.14
3.14	3.32	3.54	3.54	3.39	3.21	3.13	3.11	3.00	2.77	2.50	2.23	2.02	1.94	2.00	2.14	2.31	2.55	2.85	3.05	3.15	3.19	3.15	3.11	3.11	3.10	3.00	2.83	2.69	2.60	2.48	2.31	2.14	1.93	1.71	1.55	1.51	1.57	1.76	2.13	2.66	3.06	3.17	3.09	2.98	2.93	3.05	3.32	3.38	3.06	2.57	2.15	1.98	2.12	2.37	2.47	2.39	2.15	1.86	1.70	1.74	1.91	2.11	2.24	2.20	2.10	2.12	2.25	2.43	2.64	2.78	2.72	2.64	2.65	2.70	2.92	3.40	3.77	3.73	3.35	3.11	3.07	3.06	3.09	3.17	3.19	3.17	3.13	3.07	2.95	2.76	2.68	2.71	2.74	2.72	2.60	2.50	2.45	2.45	2.50	2.60	2.76	2.96	3.11	3.12	2.96	2.76	2.55	2.57	2.74	2.78	2.56	2.15	1.82	1.82	2.11	2.46	2.62	2.66	2.64	2.56	2.40	2.19	2.11	2.11
3.32	3.42	3.51	3.38	3.13	2.99	3.02	2.99	2.84	2.62	2.42	2.25	2.13	2.09	2.17	2.32	2.52	2.76	2.95	3.00	2.95	2.89	2.90	2.99	3.11	3.14	2.98	2.73	2.59	2.51	2.39	2.22	2.06	1.89	1.75	1.69	1.72	1.87	2.20	2.73	3.16	3.24	3.05	2.85	2.75	2.79	2.98	3.24	3.24	2.87	2.38	2.05	2.00	2.18	2.41	2.43	2.23	1.91	1.66	1.64	1.79	1.98	2.12	2.16	2.10	2.05	2.12	2.29	2.48	2.64	2.70	2.66	2.66	2.69	2.82	3.22	3.74	4.01	3.88	3.47	3.19	3.09	3.03	3.11	3.28	3.29	3.15	2.98	2.79	2.59	2.43	2.41	2.48	2.54	2.53	2.46	2.41	2.40	2.44	2.49	2.59	2.73	2.80	2.79	2.72	2.56	2.44	2.48	2.69	2.84	2.74	2.37	1.93	1.73	1.86	2.22	2.54	2.70	2.75	2.69	2.55	2.35	2.11	2.05	2.05
3.45	3.50	3.50	3.27	2.92	2.71	2.65	2.60	2.49	2.39	2.32	2.26	2.21	2.22	2.29	2.43	2.62	2.77	2.80	2.72	2.63	2.61	2.74	3.00	3.21	3.21	2.99	2.74	2.65	2.55	2.39	2.19	2.00	1.86	1.82	1.87	1.99	2.27	2.71	3.12	3.23	2.99	2.70	2.57	2.61	2.75	3.00	3.19	3.09	2.68	2.24	2.03	2.01	2.20	2.41	2.39	2.17	1.90	1.73	1.79	1.99	2.11	2.14	2.13	2.11	2.12	2.21	2.36	2.48	2.56	2.63	2.70	2.70	2.70	2.97	3.59	4.11	4.21	3.94	3.52	3.19	3.05	3.02	3.22	3.41	3.31	3.06	2.81	2.59	2.41	2.32	2.34	2.38	2.36	2.32	2.29	2.31	2.38	2.45	2.50	2.58	2.65	2.63	2.56	2.50	2.47	2.53	2.72	2.89	2.87	2.61	2.16	1.79	1.71	1.92	2.28	2.60	2.78	2.79	2.66	2.45	2.23	2.06	2.04	2.04
3.55	3.55	3.42	3.07	2.66	2.41	2.32	2.27	2.21	2.17	2.17	2.19	2.21	2.24	2.31	2.42	2.52	2.52	2.42	2.34	2.33	2.43	2.73	3.14	3.38	3.31	3.06	2.89	2.79	2.61	2.39	2.16	1.94	1.85	1.89	2.01	2.21	2.56	2.91	3.09	2.98	2.70	2.52	2.54	2.67	2.81	2.99	3.10	2.91	2.50	2.14	1.93	1.94	2.20	2.46	2.44	2.24	2.05	1.97	2.09	2.25	2.25	2.20	2.19	2.20	2.23	2.32	2.44	2.50	2.56	2.68	2.76	2.69	2.78	3.34	4.11	4.46	4.27	3.82	3.38	3.08	2.98	3.04	3.26	3.34	3.09	2.79	2.55	2.40	2.33	2.33	2.31	2.27	2.19	2.11	2.11	2.20	2.32	2.40	2.44	2.47	2.47	2.41	2.41	2.51	2.66	2.84	2.98	2.98	2.79	2.43	2.00	1.76	1.79	2.02	2.39	2.72	2.87	2.79	2.55	2.27	2.09	2.02	2.03	2.03
3.54	3.42	3.09	2.62	2.23	2.07	2.11	2.16	2.13	2.07	2.09	2.16	2.20	2.23	2.29	2.34	2.32	2.22	2.16	2.20	2.30	2.51	2.95	3.41	3.55	3.36	3.11	2.95	2.76	2.49	2.30	2.10	1.92	1.87	1.96	2.11	2.31	2.60	2.84	2.96	2.85	2.63	2.56	2.66	2.75	2.80	2.90	2.93	2.72	2.34	1.97	1.79	1.94	2.32	2.57	2.52	2.32	2.18	2.21	2.34	2.41	2.34	2.29	2.31	2.33	2.35	2.44	2.56	2.66	2.78	2.87	2.82	2.81	3.18	3.98	4.57	4.54	4.07	3.58	3.22	2.99	2.95	3.02	3.16	3.10	2.76	2.51	2.38	2.35	2.37	2.35	2.27	2.17	2.06	2.00	2.04	2.14	2.25	2.31	2.35	2.37	2.36	2.35	2.45	2.67	2.89	3.04	3.07	2.93	2.66	2.27	1.91	1.77	1.85	2.13	2.55	2.86	2.92	2.73	2.41	2.17	2.04	2.03	2.05	2.05
3.29	3.07	2.68	2.31	2.03	2.02	2.16	2.25	2.22	2.20	2.21	2.22	2.20	2.23	2.29	2.30	2.26	2.25	2.35	2.49	2.60	2.85	3.28	3.60	3.57	3.30	3.05	2.83	2.48	2.20	2.12	2.00	1.89	1.92	2.05	2.20	2.39	2.65	2.89	3.01	2.89	2.67	2.62	2.70	2.70	2.67	2.74	2.75	2.51	2.08	1.73	1.75	2.13	2.54	2.68	2.56	2.35	2.27	2.33	2.42	2.44	2.42	2.44	2.49	2.50	2.49	2.54	2.65	2.78	2.85	2.82	2.79	3.03	3.70	4.44	4.60	4.18	3.64	3.31	3.10	2.94	2.88	2.89	2.95	2.81	2.49	2.38	2.40	2.43	2.44	2.33	2.22	2.12	2.03	2.01	2.06	2.14	2.24	2.30	2.35	2.39	2.43	2.52	2.69	2.89	3.03	3.08	3.02	2.81	2.47	2.10	1.80	1.72	1.87	2.25	2.69	2.92	2.88	2.66	2.39	2.20	2.10	2.10	2.12	2.12
2.84	2.72	2.54	2.40	2.30	2.33	2.39	2.38	2.32	2.34	2.32	2.23	2.19	2.25	2.33	2.37	2.42	2.54	2.67	2.69	2.72	2.96	3.36	3.58	3.47	3.16	2.87	2.54	2.13	1.95	1.96	1.87	1.86	2.00	2.17	2.32	2.54	2.84	3.08	3.11	2.91	2.67	2.60	2.61	2.55	2.52	2.61	2.60	2.29	1.80	1.61	1.90	2.40	2.69	2.70	2.54	2.38	2.33	2.36	2.40	2.45	2.53	2.61	2.63	2.58	2.53	2.55	2.62	2.67	2.65	2.63	2.85	3.40	4.10	4.45	4.20	3.60	3.19	3.03	2.94	2.78	2.65	2.62	2.65	2.51	2.33	2.42	2.53	2.50	2.39	2.24	2.13	2.09	2.07	2.05	2.09	2.16	2.26	2.33	2.37	2.44	2.56	2.72	2.88	3.00	3.07	3.05	2.89	2.57	2.17	1.82	1.64	1.70	1.99	2.42	2.77	2.90	2.82	2.60	2.34	2.16	2.12	2.15	2.17	2.17
2.52	2.54	2.59	2.61	2.60	2.61	2.58	2.51	2.46	2.43	2.33	2.19	2.19	2.31	2.42	2.51	2.62	2.69	2.62	2.49	2.54	2.89	3.34	3.56	3.38	2.97	2.59	2.24	1.97	1.93	1.95	1.89	1.92	2.10	2.29	2.48	2.73	3.01	3.14	3.05	2.80	2.60	2.52	2.48	2.41	2.44	2.55	2.47	2.08	1.69	1.73	2.17	2.59	2.73	2.65	2.50	2.39	2.33	2.32	2.37	2.46	2.56	2.62	2.57	2.48	2.45	2.48	2.53	2.55	2.56	2.71	3.17	3.74	4.06	4.03	3.67	3.21	2.93	2.83	2.75	2.58	2.42	2.35	2.30	2.25	2.32	2.55	2.61	2.45	2.25	2.09	2.02	2.08	2.11	2.07	2.08	2.15	2.24	2.27	2.29	2.41	2.60	2.77	2.89	2.98	3.01	2.90	2.59	2.17	1.81	1.61	1.63	1.86	2.25	2.63	2.85	2.91	2.81	2.53	2.23	2.09	2.12	2.19	2.19	2.19
2.40	2.48	2.62	2.73	2.77	2.77	2.80	2.78	2.71	2.55	2.34	2.21	2.25	2.39	2.53	2.63	2.69	2.63	2.48	2.46	2.70	3.12	3.52	3.63	3.30	2.78	2.37	2.16	2.10	2.13	2.13	2.05	2.06	2.20	2.40	2.61	2.81	2.98	3.00	2.85	2.65	2.52	2.46	2.41	2.39	2.46	2.51	2.33	1.94	1.75	1.96	2.41	2.68	2.71	2.60	2.46	2.35	2.27	2.25	2.34	2.45	2.52	2.50	2.40	2.32	2.33	2.41	2.51	2.60	2.71	2.98	3.39	3.59	3.58	3.53	3.35	3.06	2.85	2.74	2.63	2.49	2.33	2.18	2.05	2.10	2.41	2.63	2.56	2.32	2.09	1.95	1.94	2.07	2.13	2.07	2.06	2.12	2.15	2.14	2.18	2.34	2.52	2.65	2.76	2.84	2.80	2.56	2.20	1.87	1.69	1.68	1.85	2.18	2.53	2.77	2.91	2.93	2.80	2.52	2.25	2.14	2.21	2.24	2.20	2.20
2.32	2.38	2.61	2.89	3.05	3.09	3.05	2.90	2.64	2.38	2.23	2.27	2.37	2.47	2.57	2.64	2.66	2.60	2.65	2.89	3.22	3.51	3.73	3.65	3.18	2.68	2.40	2.35	2.40	2.43	2.34	2.21	2.18	2.27	2.41	2.54	2.66	2.80	2.82	2.70	2.57	2.50	2.46	2.44	2.47	2.49	2.44	2.20	1.90	1.85	2.16	2.58	2.75	2.72	2.60	2.46	2.31	2.20	2.21	2.35	2.46	2.44	2.34	2.22	2.16	2.25	2.42	2.58	2.71	2.85	3.05	3.16	3.09	3.15	3.33	3.26	3.03	2.84	2.69	2.56	2.43	2.25	2.01	1.90	2.10	2.50	2.61	2.44	2.18	1.98	1.85	1.86	2.02	2.11	2.05	2.04	2.07	2.07	2.08	2.17	2.31	2.43	2.52	2.60	2.64	2.52	2.26	1.99	1.82	1.79	1.90	2.15	2.47	2.70	2.84	2.92	2.90	2.74	2.49	2.27	2.22	2.30	2.27	2.20	2.20
2.22	2.36	2.77	3.26	3.48	3.35	2.99	2.50	2.13	2.02	2.18	2.42	2.52	2.53	2.56	2.61	2.63	2.70	2.91	3.17	3.36	3.55	3.65	3.46	3.00	2.63	2.53	2.57	2.62	2.58	2.43	2.28	2.25	2.30	2.36	2.40	2.55	2.74	2.78	2.67	2.57	2.52	2.51	2.54	2.52	2.43	2.32	2.09	1.83	1.90	2.33	2.71	2.80	2.73	2.60	2.44	2.29	2.20	2.26	2.41	2.45	2.34	2.19	2.10	2.13	2.34	2.57	2.70	2.77	2.83	2.86	2.79	2.78	3.08	3.37	3.29	3.05	2.84	2.64	2.43	2.29	2.13	1.89	1.87	2.18	2.55	2.55	2.31	2.09	1.90	1.75	1.78	1.97	2.08	2.06	2.03	2.03	2.06	2.14	2.23	2.30	2.36	2.41	2.46	2.47	2.35	2.15	1.98	1.91	1.97	2.15	2.41	2.66	2.80	2.87	2.89	2.82	2.65	2.42	2.28	2.32	2.37	2.27	2.18	2.18
2.34	2.61	3.26	3.77	3.73	3.30	2.82	2.39	2.15	2.23	2.56	2.73	2.67	2.60	2.59	2.62	2.65	2.73	2.86	2.90	2.96	3.20	3.35	3.13	2.73	2.54	2.54	2.59	2.61	2.53	2.36	2.25	2.26	2.33	2.38	2.45	2.65	2.82	2.79	2.65	2.57	2.54	2.54	2.54	2.41	2.24	2.10	1.88	1.75	2.01	2.51	2.79	2.80	2.70	2.57	2.42	2.29	2.24	2.34	2.45	2.40	2.26	2.16	2.15	2.31	2.62	2.77	2.77	2.75	2.74	2.68	2.63	2.79	3.23	3.48	3.33	3.04	2.78	2.48	2.20	2.09	2.03	1.88	1.91	2.24	2.54	2.44	2.20	2.01	1.77	1.62	1.75	2.02	2.17	2.15	2.07	2.05	2.10	2.18	2.23	2.26	2.32	2.37	2.43	2.43	2.30	2.13	2.01	2.00	2.11	2.32	2.57	2.75	2.81	2.84	2.84	2.78	2.66	2.54	2.49	2.48	2.43	2.26	2.17	2.17
2.70	3.09	3.76	3.96	3.60	3.12	2.88	2.78	2.75	2.90	3.06	2.97	2.74	2.61	2.59	2.60	2.61	2.62	2.61	2.54	2.65	2.99	3.12	2.85	2.53	2.43	2.45	2.49	2.48	2.39	2.25	2.20	2.25	2.35	2.45	2.57	2.74	2.82	2.71	2.54	2.47	2.47	2.48	2.41	2.21	1.98	1.83	1.75	1.86	2.27	2.68	2.81	2.76	2.64	2.52	2.40	2.29	2.26	2.36	2.43	2.37	2.26	2.22	2.30	2.57	2.86	2.87	2.76	2.70	2.64	2.58	2.59	2.83	3.31	3.49	3.24	2.88	2.56	2.20	1.97	1.99	2.03	1.92	1.95	2.26	2.47	2.34	2.13	1.92	1.67	1.63	1.90	2.18	2.30	2.26	2.12	2.05	2.07	2.13	2.16	2.20	2.29	2.38	2.44	2.42	2.28	2.11	2.01	2.03	2.18	2.39	2.58	2.70	2.72	2.76	2.80	2.79	2.75	2.72	2.68	2.57	2.40	2.22	2.14	2.14
3.13	3.45	3.84	3.72	3.28	3.02	2.94	2.94	3.04	3.14	3.13	2.90	2.65	2.55	2.54	2.55	2.53	2.51	2.47	2.47	2.65	2.94	2.96	2.70	2.46	2.37	2.37	2.39	2.39	2.32	2.24	2.20	2.25	2.36	2.47	2.57	2.69	2.73	2.59	2.39	2.33	2.37	2.38	2.27	2.04	1.85	1.80	1.93	2.22	2.57	2.78	2.79	2.69	2.58	2.47	2.38	2.28	2.24	2.34	2.42	2.36	2.29	2.29	2.46	2.79	3.02	2.92	2.75	2.64	2.55	2.50	2.58	2.88	3.30	3.36	2.99	2.58	2.26	1.96	1.88	2.04	2.12	1.99	1.98	2.24	2.40	2.26	2.03	1.81	1.66	1.81	2.15	2.36	2.41	2.33	2.12	1.97	1.96	2.02	2.09	2.16	2.25	2.33	2.37	2.34	2.20	2.06	2.00	2.04	2.21	2.39	2.53	2.60	2.65	2.72	2.78	2.79	2.77	2.74	2.67	2.51	2.31	2.16	2.10	2.10
3.41	3.50	3.52	3.27	3.03	2.91	2.80	2.76	2.86	2.93	2.86	2.70	2.53	2.49	2.52	2.51	2.48	2.46	2.45	2.49	2.63	2.79	2.77	2.60	2.45	2.37	2.35	2.36	2.36	2.33	2.28	2.22	2.25	2.33	2.41	2.50	2.61	2.63	2.44	2.25	2.24	2.31	2.32	2.18	1.95	1.86	1.97	2.24	2.53	2.72	2.77	2.69	2.59	2.51	2.43	2.36	2.28	2.24	2.34	2.43	2.36	2.30	2.38	2.64	2.98	3.12	2.98	2.74	2.54	2.43	2.46	2.62	2.93	3.21	3.13	2.71	2.31	2.04	1.88	1.94	2.14	2.17	2.04	2.04	2.25	2.35	2.17	1.92	1.75	1.76	2.03	2.33	2.44	2.41	2.24	1.96	1.81	1.86	1.97	2.07	2.12	2.17	2.22	2.26	2.23	2.10	1.98	1.96	2.06	2.23	2.40	2.50	2.58	2.67	2.75	2.78	2.77	2.74	2.69	2.55	2.34	2.19	2.13	2.11	2.11
3.47	3.39	3.17	2.95	2.85	2.73	2.59	2.55	2.60	2.63	2.62	2.57	2.51	2.51	2.53	2.51	2.46	2.45	2.44	2.44	2.49	2.56	2.59	2.58	2.50	2.41	2.35	2.36	2.37	2.34	2.29	2.24	2.23	2.27	2.35	2.45	2.53	2.47	2.25	2.11	2.18	2.29	2.31	2.19	1.99	1.95	2.09	2.35	2.59	2.71	2.66	2.53	2.46	2.42	2.39	2.36	2.28	2.22	2.32	2.40	2.32	2.30	2.46	2.78	3.06	3.12	2.89	2.55	2.34	2.31	2.43	2.62	2.87	3.00	2.84	2.49	2.18	1.98	1.91	2.03	2.18	2.19	2.11	2.12	2.24	2.27	2.05	1.83	1.79	1.92	2.16	2.33	2.31	2.17	1.91	1.69	1.69	1.83	1.98	2.07	2.09	2.11	2.14	2.17	2.14	2.01	1.93	1.97	2.11	2.29	2.44	2.54	2.63	2.74	2.78	2.76	2.75	2.72	2.63	2.42	2.17	2.07	2.08	2.10	2.10
3.41	3.29	3.02	2.83	2.76	2.64	2.49	2.42	2.41	2.41	2.43	2.46	2.50	2.56	2.57	2.51	2.46	2.44	2.40	2.36	2.32	2.37	2.54	2.65	2.55	2.39	2.33	2.35	2.37	2.33	2.28	2.22	2.18	2.21	2.31	2.39	2.42	2.31	2.12	2.07	2.18	2.29	2.36	2.28	2.09	2.03	2.13	2.37	2.61	2.66	2.50	2.34	2.31	2.34	2.35	2.32	2.21	2.13	2.25	2.34	2.25	2.28	2.53	2.83	3.02	2.95	2.56	2.20	2.11	2.20	2.36	2.53	2.70	2.77	2.63	2.38	2.16	2.02	2.00	2.11	2.22	2.24	2.16	2.07	2.09	2.10	1.94	1.81	1.86	2.00	2.16	2.23	2.13	1.92	1.73	1.65	1.71	1.86	2.00	2.08	2.10	2.12	2.12	2.12	2.08	2.00	1.99	2.08	2.22	2.38	2.52	2.61	2.70	2.77	2.77	2.73	2.72	2.67	2.52	2.29	2.06	1.95	1.99	2.05	2.05
3.38	3.27	2.99	2.81	2.78	2.68	2.48	2.35	2.31	2.28	2.28	2.34	2.48	2.61	2.61	2.51	2.43	2.37	2.33	2.27	2.23	2.36	2.64	2.71	2.51	2.34	2.31	2.35	2.35	2.30	2.21	2.13	2.09	2.14	2.25	2.33	2.32	2.21	2.09	2.10	2.21	2.32	2.42	2.36	2.14	2.04	2.16	2.45	2.64	2.55	2.27	2.13	2.23	2.33	2.33	2.25	2.12	2.09	2.22	2.26	2.15	2.28	2.59	2.80	2.86	2.65	2.25	1.99	1.98	2.09	2.24	2.39	2.55	2.62	2.52	2.34	2.19	2.10	2.11	2.18	2.24	2.22	2.07	1.89	1.88	1.96	1.92	1.87	1.92	2.01	2.12	2.16	2.07	1.91	1.78	1.74	1.77	1.87	1.97	2.03	2.08	2.12	2.13	2.12	2.12	2.11	2.14	2.22	2.33	2.48	2.59	2.64	2.69	2.73	2.71	2.66	2.63	2.55	2.36	2.10	1.87	1.80	1.94	2.07	2.07
3.44	3.28	2.93	2.77	2.79	2.71	2.51	2.35	2.26	2.21	2.22	2.29	2.44	2.54	2.52	2.45	2.34	2.25	2.23	2.22	2.25	2.46	2.68	2.64	2.44	2.31	2.30	2.32	2.28	2.19	2.10	2.02	2.01	2.07	2.18	2.27	2.25	2.15	2.11	2.16	2.26	2.39	2.48	2.37	2.10	2.00	2.17	2.46	2.51	2.25	1.99	2.06	2.32	2.44	2.40	2.32	2.24	2.21	2.21	2.13	2.10	2.34	2.60	2.69	2.63	2.41	2.08	1.85	1.83	1.95	2.12	2.29	2.47	2.55	2.46	2.32	2.22	2.19	2.20	2.19	2.14	2.06	1.87	1.72	1.79	1.95	1.99	1.95	1.95	2.01	2.11	2.16	2.09	1.94	1.80	1.74	1.78	1.85	1.93	1.98	2.04	2.12	2.16	2.18	2.23	2.26	2.27	2.31	2.41	2.53	2.60	2.61	2.64	2.64	2.60	2.54	2.48	2.36	2.13	1.84	1.64	1.70	1.98	2.16	2.16
3.43	3.16	2.75	2.65	2.73	2.68	2.48	2.29	2.16	2.11	2.13	2.20	2.31	2.30	2.21	2.18	2.15	2.11	2.13	2.18	2.25	2.43	2.57	2.54	2.41	2.31	2.28	2.24	2.17	2.07	2.00	1.96	1.95	2.01	2.13	2.22	2.19	2.12	2.14	2.22	2.33	2.44	2.48	2.34	2.07	1.98	2.12	2.28	2.16	1.90	1.91	2.21	2.50	2.56	2.49	2.45	2.41	2.31	2.15	2.06	2.17	2.41	2.55	2.53	2.45	2.28	1.99	1.74	1.71	1.86	2.05	2.25	2.45	2.52	2.41	2.29	2.23	2.22	2.19	2.10	1.98	1.87	1.75	1.70	1.85	2.02	2.05	2.00	1.98	2.02	2.09	2.12	2.02	1.84	1.72	1.71	1.80	1.90	1.98	2.04	2.11	2.18	2.20	2.23	2.28	2.29	2.27	2.31	2.41	2.51	2.56	2.58	2.58	2.57	2.50	2.42	2.32	2.14	1.88	1.64	1.61	1.81	2.13	2.30	2.30
3.22	2.93	2.56	2.55	2.68	2.62	2.37	2.16	2.03	1.96	1.98	2.09	2.19	2.13	1.96	1.89	1.89	1.92	2.02	2.13	2.19	2.29	2.43	2.48	2.41	2.33	2.27	2.20	2.11	2.03	1.97	1.94	1.92	1.97	2.08	2.15	2.12	2.11	2.18	2.27	2.35	2.40	2.41	2.29	2.06	1.95	2.02	2.04	1.90	1.89	2.16	2.48	2.63	2.58	2.49	2.46	2.42	2.29	2.13	2.12	2.27	2.42	2.46	2.43	2.36	2.24	1.98	1.76	1.77	1.92	2.11	2.31	2.47	2.48	2.36	2.25	2.20	2.17	2.12	2.01	1.91	1.82	1.77	1.84	2.00	2.09	2.08	2.04	2.00	1.98	2.00	1.98	1.87	1.72	1.66	1.75	1.90	2.02	2.09	2.16	2.23	2.25	2.23	2.23	2.24	2.22	2.22	2.28	2.40	2.50	2.56	2.56	2.55	2.52	2.45	2.34	2.18	1.97	1.77	1.70	1.82	2.07	2.32	2.43	2.43
3.00	2.79	2.53	2.57	2.64	2.49	2.22	2.04	1.93	1.82	1.83	2.03	2.18	2.11	1.90	1.72	1.66	1.75	1.95	2.11	2.15	2.22	2.37	2.46	2.41	2.32	2.24	2.18	2.10	2.04	2.00	1.96	1.95	1.98	2.06	2.10	2.10	2.14	2.22	2.27	2.29	2.31	2.33	2.24	2.02	1.90	1.93	1.96	2.01	2.24	2.51	2.65	2.62	2.51	2.43	2.39	2.34	2.22	2.12	2.13	2.23	2.36	2.40	2.38	2.34	2.25	2.04	1.85	1.88	2.06	2.25	2.41	2.46	2.39	2.27	2.18	2.14	2.11	2.07	2.00	1.93	1.86	1.85	1.97	2.08	2.08	2.04	1.99	1.94	1.89	1.87	1.85	1.80	1.74	1.76	1.88	2.01	2.10	2.18	2.25	2.27	2.24	2.21	2.21	2.21	2.22	2.25	2.33	2.46	2.55	2.57	2.53	2.50	2.47	2.39	2.26	2.08	1.94	1.88	1.95	2.12	2.32	2.45	2.48	2.48
