ncols	125
nrows	152
xllcorner	-2042055
yllcorner	1465305
cellsize	30.000000
NODATA_value	-9999.000000
2.53	2.29	1.84	1.53	1.27	1.04	0.82	0.65	0.64	0.75	0.98	1.17	1.11	1.09	1.46	1.93	1.99	1.59	1.26	1.25	1.50	1.81	1.96	1.85	1.73	1.71	1.72	1.70	1.67	1.72	1.85	2.00	2.07	2.05	2.00	1.96	1.91	1.82	1.64	1.34	1.06	0.95	0.99	1.15	1.38	1.50	1.55	1.63	1.79	1.98	2.15	2.16	1.99	1.86	1.71	1.51	1.42	1.38	1.33	1.33	1.41	1.54	1.60	1.58	1.55	1.50	1.46	1.43	1.42	1.44	1.47	1.51	1.53	1.54	1.53	1.49	1.42	1.36	1.29	1.23	1.16	1.09	1.07	1.25	1.57	1.70	1.51	1.33	1.33	1.38	1.37	1.38	1.40	1.44	1.51	1.60	1.69	1.81	1.91	1.90	1.84	1.83	1.76	1.62	1.49	1.50	1.65	1.67	1.56	1.64	1.72	1.44	1.26	1.48	1.73	1.75	1.64	1.53	1.46	1.52	1.85	2.03	1.74	1.47	1.47
2.45	2.28	1.93	1.67	1.45	1.22	1.01	0.81	0.72	0.72	0.79	0.89	0.90	0.95	1.28	1.74	1.94	1.70	1.33	1.22	1.44	1.76	1.90	1.84	1.73	1.70	1.73	1.71	1.66	1.67	1.78	1.94	2.05	2.07	2.05	2.04	2.05	2.03	1.91	1.67	1.37	1.10	0.97	0.96	1.08	1.28	1.41	1.52	1.72	1.98	2.12	2.07	1.91	1.89	1.91	1.85	1.73	1.64	1.56	1.50	1.49	1.52	1.57	1.59	1.61	1.61	1.57	1.48	1.41	1.40	1.44	1.50	1.54	1.56	1.56	1.54	1.48	1.41	1.32	1.21	1.13	1.10	1.09	1.14	1.31	1.46	1.39	1.30	1.33	1.35	1.33	1.35	1.40	1.46	1.49	1.56	1.63	1.70	1.79	1.86	1.89	1.92	1.89	1.73	1.52	1.37	1.48	1.67	1.61	1.58	1.74	1.69	1.39	1.35	1.60	1.71	1.57	1.42	1.31	1.39	1.74	2.04	1.88	1.60	1.60
2.34	2.25	2.07	1.87	1.67	1.45	1.23	1.07	0.96	0.82	0.76	0.74	0.73	0.80	1.08	1.50	1.76	1.68	1.43	1.32	1.46	1.68	1.76	1.75	1.69	1.67	1.70	1.74	1.72	1.68	1.74	1.88	2.02	2.08	2.09	2.13	2.20	2.25	2.25	2.12	1.86	1.56	1.26	1.03	0.96	1.10	1.33	1.52	1.73	1.98	2.07	1.90	1.67	1.67	1.79	1.86	1.82	1.74	1.67	1.63	1.60	1.60	1.59	1.60	1.66	1.73	1.70	1.55	1.38	1.32	1.38	1.49	1.56	1.59	1.59	1.58	1.57	1.52	1.40	1.25	1.15	1.12	1.10	1.09	1.14	1.23	1.23	1.23	1.30	1.31	1.29	1.33	1.43	1.48	1.46	1.53	1.62	1.64	1.68	1.81	1.92	1.97	2.00	1.93	1.74	1.46	1.40	1.63	1.76	1.75	1.84	1.93	1.80	1.60	1.68	1.70	1.48	1.25	1.11	1.23	1.59	1.96	2.00	1.90	1.90
2.18	2.22	2.22	2.09	1.91	1.72	1.51	1.36	1.23	1.08	0.91	0.79	0.70	0.70	0.88	1.25	1.53	1.57	1.49	1.46	1.57	1.65	1.62	1.61	1.62	1.60	1.61	1.69	1.75	1.73	1.73	1.79	1.92	2.00	2.00	2.04	2.13	2.24	2.32	2.35	2.28	2.11	1.84	1.47	1.11	1.07	1.27	1.51	1.75	1.99	2.03	1.76	1.47	1.31	1.40	1.60	1.71	1.71	1.67	1.66	1.66	1.66	1.62	1.57	1.64	1.78	1.82	1.66	1.40	1.25	1.29	1.46	1.58	1.62	1.63	1.63	1.67	1.67	1.58	1.43	1.31	1.25	1.22	1.14	1.08	1.08	1.10	1.15	1.25	1.28	1.27	1.32	1.42	1.47	1.48	1.54	1.67	1.71	1.65	1.73	1.94	2.02	2.04	2.05	1.95	1.74	1.61	1.67	1.82	1.90	1.95	2.02	2.04	1.99	1.97	1.84	1.42	1.07	0.93	1.06	1.40	1.75	1.99	2.07	2.07
2.05	2.13	2.27	2.27	2.14	2.00	1.84	1.71	1.57	1.41	1.24	1.07	0.88	0.74	0.76	1.02	1.30	1.42	1.47	1.57	1.70	1.70	1.58	1.54	1.57	1.57	1.54	1.56	1.67	1.74	1.74	1.72	1.77	1.83	1.80	1.78	1.86	2.00	2.14	2.25	2.32	2.35	2.28	2.01	1.55	1.19	1.23	1.49	1.78	1.99	1.97	1.72	1.45	1.26	1.25	1.39	1.56	1.63	1.65	1.67	1.69	1.70	1.66	1.54	1.53	1.72	1.88	1.82	1.54	1.27	1.25	1.43	1.61	1.66	1.66	1.67	1.72	1.75	1.72	1.63	1.53	1.45	1.40	1.31	1.13	1.00	0.99	1.06	1.18	1.25	1.27	1.33	1.42	1.49	1.53	1.54	1.65	1.80	1.79	1.73	1.94	2.10	2.09	2.08	2.06	1.96	1.84	1.72	1.69	1.76	1.82	1.86	1.91	2.02	2.17	2.11	1.64	1.15	0.88	0.90	1.17	1.53	1.89	2.08	2.08
1.88	1.97	2.13	2.23	2.25	2.19	2.09	1.99	1.90	1.76	1.62	1.47	1.26	1.00	0.83	0.91	1.11	1.25	1.37	1.57	1.75	1.77	1.63	1.56	1.56	1.57	1.55	1.53	1.56	1.65	1.66	1.63	1.66	1.70	1.66	1.60	1.63	1.74	1.86	1.96	2.06	2.22	2.36	2.34	2.07	1.59	1.39	1.60	1.86	1.97	1.85	1.70	1.55	1.39	1.31	1.33	1.43	1.53	1.60	1.67	1.71	1.72	1.70	1.57	1.46	1.60	1.87	1.96	1.76	1.46	1.31	1.42	1.57	1.65	1.64	1.63	1.66	1.71	1.69	1.64	1.55	1.45	1.39	1.35	1.21	0.99	0.92	0.98	1.11	1.21	1.30	1.40	1.49	1.55	1.58	1.58	1.64	1.82	1.96	1.94	2.04	2.16	2.17	2.14	2.07	1.99	1.91	1.74	1.54	1.54	1.62	1.67	1.72	1.90	2.18	2.19	1.93	1.54	1.09	0.90	1.04	1.39	1.76	1.97	1.97
1.90	1.81	1.74	1.89	2.04	2.10	2.09	2.05	2.01	1.94	1.87	1.77	1.63	1.39	1.14	1.00	1.03	1.12	1.22	1.46	1.71	1.77	1.68	1.59	1.55	1.54	1.54	1.50	1.47	1.49	1.51	1.54	1.59	1.62	1.56	1.50	1.50	1.55	1.59	1.66	1.74	1.88	2.11	2.32	2.35	2.08	1.75	1.83	1.99	1.92	1.70	1.60	1.50	1.44	1.38	1.34	1.34	1.40	1.53	1.66	1.74	1.76	1.73	1.64	1.49	1.50	1.76	1.97	1.94	1.71	1.50	1.49	1.58	1.64	1.62	1.58	1.59	1.60	1.59	1.59	1.52	1.38	1.25	1.21	1.13	0.97	0.86	0.90	1.04	1.19	1.31	1.46	1.59	1.66	1.68	1.69	1.71	1.79	1.96	2.04	2.09	2.13	2.14	2.11	2.07	1.96	1.87	1.79	1.59	1.48	1.57	1.64	1.72	1.95	2.14	2.05	1.89	1.76	1.47	1.13	1.06	1.28	1.63	1.84	1.84
2.08	1.87	1.56	1.48	1.62	1.81	1.92	1.95	1.89	1.85	1.85	1.83	1.78	1.68	1.51	1.28	1.11	1.08	1.14	1.33	1.60	1.70	1.67	1.58	1.51	1.46	1.44	1.42	1.38	1.36	1.40	1.46	1.53	1.52	1.45	1.41	1.42	1.44	1.42	1.43	1.47	1.55	1.73	2.01	2.27	2.29	2.11	2.08	2.16	1.97	1.65	1.46	1.39	1.42	1.41	1.35	1.28	1.30	1.44	1.61	1.77	1.82	1.78	1.69	1.56	1.50	1.64	1.87	1.98	1.90	1.72	1.64	1.64	1.64	1.60	1.58	1.54	1.52	1.57	1.64	1.62	1.46	1.24	1.09	1.02	0.93	0.82	0.84	0.99	1.16	1.26	1.39	1.56	1.68	1.71	1.72	1.71	1.73	1.81	1.89	1.92	1.95	1.95	1.96	2.07	2.00	1.79	1.77	1.67	1.55	1.59	1.69	1.79	2.05	2.20	1.97	1.70	1.66	1.57	1.36	1.17	1.19	1.50	1.72	1.72
2.12	2.03	1.70	1.40	1.32	1.51	1.70	1.72	1.63	1.60	1.63	1.66	1.66	1.65	1.65	1.54	1.30	1.16	1.16	1.29	1.48	1.59	1.61	1.56	1.47	1.39	1.36	1.37	1.36	1.34	1.35	1.40	1.50	1.52	1.44	1.37	1.37	1.37	1.35	1.33	1.33	1.36	1.46	1.65	1.92	2.19	2.25	2.27	2.28	2.11	1.76	1.49	1.40	1.44	1.45	1.39	1.28	1.25	1.36	1.52	1.72	1.85	1.86	1.77	1.67	1.60	1.63	1.79	1.97	2.01	1.91	1.80	1.70	1.62	1.61	1.61	1.58	1.52	1.56	1.68	1.73	1.61	1.35	1.13	1.03	0.93	0.81	0.78	0.88	1.06	1.17	1.25	1.39	1.52	1.58	1.57	1.55	1.55	1.59	1.65	1.76	1.83	1.77	1.72	1.99	2.05	1.80	1.68	1.66	1.63	1.65	1.72	1.82	2.09	2.28	2.13	1.81	1.63	1.52	1.41	1.22	1.11	1.34	1.56	1.56
2.13	2.09	1.86	1.56	1.31	1.36	1.52	1.52	1.43	1.38	1.37	1.34	1.32	1.33	1.46	1.56	1.46	1.30	1.25	1.31	1.42	1.52	1.57	1.56	1.49	1.41	1.38	1.39	1.42	1.40	1.34	1.34	1.48	1.60	1.57	1.50	1.43	1.35	1.31	1.32	1.34	1.34	1.38	1.48	1.65	1.94	2.17	2.35	2.40	2.24	1.93	1.66	1.55	1.55	1.54	1.47	1.33	1.28	1.36	1.47	1.60	1.80	1.95	1.94	1.83	1.75	1.72	1.80	1.98	2.13	2.14	2.00	1.79	1.65	1.65	1.67	1.65	1.57	1.57	1.69	1.78	1.72	1.48	1.24	1.10	0.99	0.86	0.77	0.79	0.93	1.07	1.14	1.21	1.32	1.38	1.38	1.37	1.38	1.42	1.52	1.73	1.84	1.64	1.50	1.84	2.03	1.84	1.65	1.61	1.62	1.66	1.68	1.77	2.04	2.25	2.19	2.07	1.93	1.71	1.52	1.35	1.16	1.21	1.33	1.33
2.21	2.07	1.84	1.67	1.50	1.46	1.53	1.49	1.37	1.32	1.28	1.19	1.11	1.05	1.14	1.39	1.48	1.42	1.37	1.39	1.44	1.51	1.58	1.60	1.56	1.50	1.47	1.46	1.50	1.52	1.43	1.31	1.38	1.58	1.68	1.65	1.58	1.44	1.31	1.32	1.39	1.44	1.46	1.48	1.55	1.74	2.03	2.33	2.50	2.42	2.11	1.86	1.75	1.69	1.63	1.54	1.43	1.42	1.48	1.51	1.56	1.74	1.95	2.05	2.01	1.88	1.79	1.80	1.95	2.15	2.29	2.26	1.96	1.79	1.75	1.73	1.71	1.68	1.66	1.70	1.79	1.77	1.60	1.39	1.21	1.07	0.93	0.79	0.77	0.85	0.98	1.05	1.11	1.22	1.30	1.33	1.35	1.36	1.39	1.52	1.81	1.87	1.52	1.36	1.70	1.94	1.82	1.66	1.61	1.59	1.61	1.62	1.73	1.96	2.13	2.06	1.99	2.06	2.04	1.87	1.67	1.44	1.26	1.19	1.19
2.30	2.11	1.81	1.70	1.69	1.68	1.65	1.56	1.45	1.39	1.35	1.26	1.16	1.05	1.02	1.18	1.37	1.44	1.45	1.46	1.49	1.54	1.61	1.65	1.64	1.59	1.56	1.54	1.54	1.61	1.59	1.43	1.33	1.42	1.60	1.74	1.76	1.66	1.46	1.36	1.41	1.50	1.56	1.58	1.57	1.67	1.92	2.23	2.49	2.55	2.32	2.04	1.88	1.80	1.72	1.60	1.55	1.56	1.59	1.61	1.59	1.63	1.77	1.95	2.03	1.97	1.80	1.65	1.72	2.01	2.35	2.51	2.33	2.16	2.07	1.98	1.97	1.95	1.90	1.89	1.91	1.87	1.72	1.54	1.34	1.16	1.01	0.84	0.76	0.79	0.91	0.99	1.07	1.20	1.33	1.41	1.44	1.46	1.49	1.60	1.85	1.91	1.54	1.31	1.58	1.86	1.79	1.65	1.60	1.60	1.61	1.65	1.74	1.84	1.94	1.93	1.76	1.81	2.01	2.04	1.95	1.79	1.50	1.30	1.30
2.32	2.19	1.90	1.77	1.82	1.88	1.82	1.69	1.60	1.54	1.52	1.49	1.42	1.28	1.14	1.12	1.25	1.38	1.45	1.50	1.54	1.59	1.65	1.69	1.67	1.64	1.63	1.60	1.56	1.61	1.69	1.62	1.46	1.37	1.44	1.66	1.87	1.90	1.78	1.61	1.53	1.56	1.62	1.63	1.59	1.63	1.78	2.04	2.37	2.52	2.44	2.20	2.01	1.90	1.79	1.63	1.58	1.62	1.66	1.64	1.56	1.48	1.51	1.68	1.88	1.95	1.83	1.55	1.42	1.69	2.17	2.46	2.55	2.51	2.42	2.37	2.38	2.39	2.34	2.30	2.31	2.20	1.94	1.68	1.45	1.25	1.08	0.89	0.76	0.76	0.86	0.98	1.07	1.20	1.38	1.47	1.53	1.56	1.60	1.69	1.84	1.91	1.68	1.41	1.52	1.79	1.76	1.61	1.56	1.60	1.71	1.81	1.76	1.60	1.63	1.79	1.68	1.50	1.66	1.87	1.94	1.92	1.72	1.52	1.52
2.35	2.24	1.96	1.78	1.84	1.91	1.89	1.83	1.77	1.70	1.67	1.64	1.61	1.51	1.36	1.24	1.25	1.34	1.43	1.50	1.56	1.64	1.70	1.73	1.68	1.63	1.63	1.64	1.58	1.55	1.66	1.72	1.69	1.60	1.54	1.64	1.86	2.00	1.99	1.85	1.70	1.63	1.63	1.65	1.63	1.63	1.68	1.84	2.15	2.35	2.35	2.24	2.12	2.00	1.86	1.67	1.59	1.65	1.66	1.62	1.51	1.38	1.33	1.41	1.62	1.78	1.79	1.58	1.29	1.32	1.71	2.09	2.28	2.35	2.39	2.42	2.44	2.46	2.44	2.46	2.59	2.64	2.32	1.89	1.56	1.37	1.22	1.07	0.90	0.83	0.88	0.98	1.07	1.17	1.31	1.42	1.50	1.55	1.62	1.75	1.80	1.80	1.74	1.57	1.57	1.75	1.80	1.68	1.54	1.56	1.78	1.91	1.73	1.35	1.34	1.60	1.68	1.46	1.37	1.52	1.66	1.79	1.76	1.67	1.67
2.41	2.26	1.93	1.74	1.76	1.87	1.92	1.88	1.81	1.73	1.67	1.65	1.64	1.60	1.53	1.41	1.34	1.35	1.42	1.49	1.56	1.67	1.78	1.81	1.76	1.67	1.64	1.67	1.63	1.55	1.61	1.73	1.82	1.82	1.77	1.74	1.82	1.93	1.96	1.88	1.77	1.69	1.68	1.69	1.69	1.67	1.67	1.74	1.93	2.11	2.21	2.24	2.24	2.17	2.01	1.81	1.70	1.67	1.67	1.61	1.49	1.35	1.22	1.19	1.35	1.49	1.56	1.47	1.21	1.03	1.18	1.52	1.77	1.93	2.07	2.12	2.09	2.08	2.15	2.23	2.52	2.79	2.73	2.22	1.78	1.58	1.47	1.37	1.20	1.01	0.96	1.00	1.04	1.07	1.15	1.26	1.39	1.49	1.65	1.78	1.69	1.65	1.68	1.65	1.64	1.76	1.91	1.90	1.68	1.56	1.83	1.98	1.68	1.26	1.16	1.36	1.62	1.58	1.41	1.36	1.40	1.58	1.69	1.65	1.65
2.41	2.22	1.91	1.77	1.82	1.90	1.91	1.85	1.76	1.66	1.60	1.57	1.54	1.55	1.55	1.49	1.42	1.40	1.43	1.49	1.56	1.70	1.88	1.98	1.96	1.85	1.75	1.75	1.77	1.71	1.67	1.72	1.79	1.81	1.78	1.73	1.75	1.80	1.84	1.83	1.79	1.77	1.75	1.71	1.68	1.68	1.71	1.75	1.77	1.88	2.00	2.08	2.19	2.27	2.18	2.01	1.84	1.76	1.72	1.61	1.49	1.35	1.17	1.09	1.16	1.24	1.25	1.24	1.09	0.84	0.85	1.08	1.32	1.48	1.59	1.66	1.60	1.58	1.65	1.76	2.13	2.67	2.90	2.65	2.15	1.79	1.61	1.50	1.38	1.16	1.01	1.01	1.03	1.02	1.05	1.16	1.32	1.48	1.72	1.82	1.64	1.54	1.63	1.65	1.62	1.72	1.94	2.10	1.99	1.80	1.97	2.03	1.67	1.27	1.09	1.14	1.41	1.56	1.55	1.47	1.37	1.48	1.60	1.58	1.58
2.26	2.17	2.06	1.99	1.96	1.98	1.92	1.80	1.67	1.61	1.56	1.49	1.44	1.44	1.47	1.47	1.44	1.42	1.45	1.49	1.54	1.66	1.87	2.06	2.11	2.06	1.97	1.92	1.93	1.89	1.77	1.68	1.68	1.69	1.66	1.61	1.65	1.74	1.81	1.80	1.76	1.77	1.76	1.73	1.69	1.66	1.73	1.75	1.69	1.73	1.79	1.88	2.00	2.13	2.19	2.13	2.02	1.92	1.79	1.66	1.54	1.37	1.24	1.16	1.15	1.15	1.13	1.13	1.03	0.81	0.72	0.86	1.08	1.21	1.24	1.29	1.30	1.35	1.40	1.46	1.78	2.30	2.74	2.81	2.49	1.96	1.58	1.39	1.29	1.13	1.00	0.98	1.03	1.05	1.09	1.17	1.29	1.48	1.74	1.83	1.64	1.54	1.63	1.69	1.61	1.61	1.80	2.08	2.15	2.11	2.17	2.15	1.72	1.35	1.15	1.06	1.12	1.25	1.42	1.53	1.49	1.47	1.53	1.54	1.54
1.96	2.01	2.07	2.07	2.08	2.04	1.96	1.82	1.66	1.58	1.54	1.46	1.39	1.36	1.38	1.41	1.42	1.42	1.43	1.45	1.45	1.50	1.66	1.88	2.03	2.07	2.03	1.97	1.92	1.87	1.77	1.65	1.59	1.61	1.60	1.55	1.60	1.70	1.75	1.75	1.74	1.75	1.76	1.76	1.68	1.67	1.72	1.71	1.66	1.63	1.64	1.67	1.73	1.85	2.01	2.13	2.18	2.11	1.93	1.79	1.67	1.53	1.43	1.33	1.22	1.15	1.13	1.14	1.06	0.88	0.76	0.78	0.92	1.04	1.03	1.01	1.08	1.23	1.26	1.22	1.46	1.88	2.39	2.75	2.72	2.18	1.65	1.36	1.23	1.10	0.99	0.96	1.02	1.06	1.10	1.19	1.26	1.47	1.76	1.84	1.68	1.59	1.69	1.75	1.70	1.64	1.69	1.89	2.08	2.19	2.36	2.35	1.92	1.57	1.36	1.17	1.07	1.02	1.09	1.35	1.50	1.50	1.52	1.53	1.53
1.66	1.71	1.86	2.03	2.19	2.19	2.03	1.85	1.69	1.57	1.51	1.42	1.35	1.31	1.31	1.34	1.37	1.38	1.39	1.39	1.37	1.37	1.44	1.58	1.77	1.88	1.89	1.86	1.83	1.79	1.73	1.64	1.57	1.54	1.53	1.51	1.56	1.64	1.67	1.67	1.70	1.76	1.80	1.75	1.70	1.72	1.73	1.74	1.70	1.60	1.54	1.55	1.59	1.67	1.82	2.05	2.24	2.28	2.15	1.98	1.87	1.79	1.70	1.56	1.37	1.21	1.16	1.15	1.10	0.99	0.88	0.82	0.86	0.93	0.91	0.86	0.92	1.07	1.09	1.02	1.17	1.50	1.99	2.54	2.77	2.50	1.97	1.56	1.34	1.17	1.03	0.97	1.00	1.03	1.03	1.10	1.23	1.47	1.75	1.83	1.70	1.61	1.66	1.71	1.72	1.68	1.66	1.80	1.99	2.09	2.35	2.46	2.18	1.84	1.61	1.45	1.34	1.22	1.08	1.16	1.38	1.49	1.53	1.56	1.56
1.54	1.51	1.64	1.95	2.27	2.33	2.17	1.89	1.71	1.57	1.47	1.38	1.30	1.25	1.24	1.27	1.33	1.36	1.38	1.38	1.37	1.38	1.43	1.51	1.61	1.72	1.78	1.79	1.78	1.77	1.75	1.68	1.59	1.53	1.49	1.49	1.55	1.62	1.60	1.56	1.62	1.75	1.82	1.79	1.71	1.69	1.74	1.83	1.81	1.65	1.50	1.45	1.46	1.53	1.71	1.95	2.20	2.36	2.37	2.23	2.09	2.01	1.92	1.77	1.58	1.40	1.29	1.24	1.20	1.12	1.02	0.90	0.87	0.91	0.89	0.83	0.84	0.94	0.94	0.89	0.95	1.17	1.56	2.13	2.58	2.66	2.27	1.76	1.43	1.23	1.06	0.97	0.99	1.02	1.01	1.06	1.20	1.45	1.69	1.74	1.58	1.52	1.57	1.63	1.65	1.64	1.67	1.79	1.92	1.98	2.15	2.33	2.28	2.07	1.84	1.68	1.59	1.53	1.40	1.26	1.33	1.47	1.56	1.61	1.61
1.54	1.48	1.53	1.80	2.16	2.42	2.42	2.10	1.83	1.66	1.51	1.41	1.34	1.25	1.20	1.22	1.30	1.37	1.42	1.43	1.43	1.45	1.49	1.55	1.59	1.65	1.74	1.78	1.77	1.78	1.76	1.70	1.63	1.59	1.55	1.50	1.49	1.57	1.58	1.48	1.48	1.62	1.78	1.80	1.70	1.63	1.92	1.86	1.91	1.77	1.54	1.36	1.30	1.36	1.56	1.83	2.09	2.32	2.45	2.42	2.29	2.18	2.13	2.04	1.90	1.70	1.52	1.44	1.39	1.31	1.17	1.04	0.97	0.99	0.96	0.87	0.86	0.91	0.88	0.80	0.81	0.94	1.19	1.66	2.20	2.54	2.47	1.97	1.51	1.27	1.09	0.98	0.97	1.02	1.03	1.05	1.21	1.43	1.59	1.57	1.48	1.41	1.47	1.56	1.60	1.64	1.71	1.78	1.84	1.87	1.94	2.05	2.12	2.11	1.97	1.76	1.61	1.59	1.57	1.46	1.44	1.53	1.63	1.66	1.66
1.55	1.48	1.44	1.61	1.93	2.33	2.55	2.41	2.10	1.87	1.70	1.56	1.48	1.39	1.29	1.24	1.29	1.37	1.45	1.48	1.47	1.46	1.47	1.51	1.56	1.63	1.73	1.76	1.71	1.72	1.76	1.75	1.69	1.66	1.64	1.56	1.46	1.48	1.56	1.51	1.41	1.47	1.67	1.72	1.66	1.58	1.62	1.81	1.96	1.94	1.69	1.38	1.19	1.19	1.40	1.69	1.93	2.18	2.35	2.40	2.37	2.32	2.33	2.35	2.25	2.12	1.93	1.75	1.66	1.60	1.44	1.27	1.18	1.16	1.09	0.97	0.94	0.95	0.89	0.78	0.72	0.76	0.94	1.28	1.73	2.24	2.47	2.25	1.73	1.36	1.12	0.98	0.96	1.02	1.04	1.06	1.23	1.42	1.49	1.52	1.52	1.44	1.42	1.50	1.58	1.67	1.75	1.79	1.82	1.84	1.85	1.84	1.79	1.91	1.97	1.78	1.56	1.47	1.50	1.51	1.52	1.60	1.69	1.71	1.71
1.65	1.49	1.32	1.38	1.60	2.06	2.44	2.53	2.33	2.05	1.86	1.70	1.60	1.53	1.43	1.33	1.30	1.33	1.41	1.46	1.46	1.44	1.43	1.45	1.52	1.61	1.70	1.72	1.66	1.67	1.75	1.81	1.78	1.72	1.70	1.67	1.56	1.48	1.55	1.57	1.47	1.44	1.58	1.62	1.59	1.52	1.53	1.69	1.93	2.07	1.96	1.59	1.21	1.06	1.21	1.49	1.76	2.00	2.15	2.23	2.22	2.18	2.22	2.01	2.42	2.48	2.43	2.22	2.04	1.92	1.77	1.58	1.47	1.37	1.27	1.17	1.11	1.06	0.97	0.84	0.71	0.68	0.78	1.01	1.34	1.81	2.25	2.35	2.05	1.57	1.22	1.01	0.95	1.00	1.04	1.09	1.26	1.39	1.43	1.53	1.65	1.64	1.55	1.54	1.60	1.69	1.79	1.85	1.89	1.89	1.87	1.74	1.44	1.58	1.86	1.85	1.64	1.45	1.41	1.43	1.46	1.56	1.70	1.79	1.79
1.77	1.61	1.37	1.27	1.36	1.72	2.17	2.44	2.43	2.19	1.92	1.70	1.57	1.50	1.45	1.37	1.31	1.30	1.33	1.36	1.39	1.41	1.42	1.45	1.50	1.58	1.65	1.66	1.61	1.62	1.74	1.84	1.85	1.83	1.81	1.81	1.78	1.67	1.64	1.67	1.63	1.56	1.58	1.60	1.55	1.45	1.38	1.49	1.77	2.04	2.14	1.96	1.46	1.09	1.10	1.33	1.60	1.84	1.96	2.02	1.99	1.94	1.94	2.06	2.22	2.41	2.27	2.55	2.46	2.34	2.25	2.16	2.02	1.78	1.55	1.44	1.38	1.29	1.13	0.98	0.82	0.71	0.71	0.84	1.07	1.39	1.81	2.16	2.19	1.90	1.46	1.11	0.97	0.99	1.05	1.13	1.27	1.35	1.38	1.49	1.67	1.78	1.74	1.67	1.68	1.76	1.86	1.94	1.95	1.93	1.88	1.62	1.31	1.34	1.63	1.78	1.71	1.50	1.39	1.36	1.32	1.40	1.63	1.79	1.79
1.81	1.76	1.60	1.38	1.27	1.46	1.85	2.23	2.41	2.33	2.06	1.78	1.57	1.43	1.36	1.31	1.29	1.28	1.28	1.29	1.35	1.42	1.44	1.45	1.49	1.55	1.58	1.53	1.46	1.49	1.64	1.76	1.84	1.90	1.92	1.94	1.93	1.87	1.81	1.80	1.79	1.69	1.69	1.69	1.58	1.36	1.23	1.26	1.49	1.83	2.09	2.15	1.85	1.31	1.12	1.23	1.45	1.66	1.78	1.89	1.92	1.80	1.60	1.60	1.75	2.01	2.30	2.49	2.58	2.56	2.54	2.53	2.51	2.39	2.08	1.86	1.72	1.56	1.36	1.16	0.99	0.85	0.77	0.78	0.89	1.08	1.36	1.74	2.01	2.03	1.76	1.36	1.08	1.01	1.08	1.17	1.28	1.35	1.37	1.44	1.59	1.78	1.86	1.85	1.85	1.90	1.98	2.06	2.05	1.95	1.78	1.52	1.28	1.23	1.35	1.53	1.57	1.47	1.43	1.42	1.36	1.33	1.48	1.61	1.61
1.78	1.76	1.71	1.56	1.33	1.30	1.57	1.95	2.26	2.38	2.28	2.02	1.76	1.53	1.37	1.28	1.27	1.28	1.29	1.32	1.39	1.45	1.46	1.46	1.48	1.55	1.56	1.42	1.26	1.26	1.41	1.53	1.62	1.73	1.84	1.92	1.92	1.91	1.90	1.90	1.85	1.78	1.79	1.79	1.66	1.42	1.20	1.11	1.22	1.49	1.86	2.12	2.07	1.58	1.21	1.17	1.31	1.50	1.66	1.86	1.97	1.76	1.40	1.28	1.36	1.61	1.93	2.14	2.29	2.37	2.39	2.43	2.55	2.64	2.58	2.37	2.10	1.82	1.56	1.33	1.16	1.03	0.93	0.87	0.87	0.92	1.03	1.26	1.58	1.83	1.84	1.63	1.31	1.09	1.10	1.21	1.29	1.38	1.44	1.47	1.55	1.70	1.85	1.94	1.97	1.99	2.10	2.24	2.20	1.91	1.63	1.48	1.34	1.27	1.25	1.27	1.32	1.36	1.44	1.58	1.66	1.58	1.55	1.56	1.56
1.78	1.73	1.65	1.56	1.37	1.22	1.33	1.65	1.99	2.23	2.32	2.20	1.95	1.69	1.48	1.33	1.28	1.29	1.33	1.39	1.45	1.51	1.53	1.52	1.52	1.59	1.61	1.46	1.22	1.12	1.19	1.28	1.31	1.41	1.57	1.72	1.80	1.82	1.86	1.92	1.88	1.84	1.81	1.75	1.64	1.49	1.27	1.06	1.02	1.21	1.52	1.95	2.08	1.76	1.31	1.14	1.23	1.42	1.65	1.94	2.06	1.71	1.23	1.07	1.12	1.35	1.61	1.75	1.89	2.00	2.04	2.08	2.24	2.46	2.61	2.67	2.51	2.12	1.76	1.52	1.35	1.22	1.13	1.07	1.00	0.93	0.92	0.96	1.11	1.37	1.58	1.61	1.43	1.17	1.11	1.19	1.26	1.34	1.44	1.49	1.52	1.62	1.76	1.89	1.95	1.97	2.12	2.39	2.43	2.00	1.66	1.53	1.47	1.44	1.41	1.31	1.24	1.26	1.36	1.57	1.78	1.83	1.77	1.73	1.73
1.99	1.86	1.62	1.45	1.30	1.10	1.05	1.29	1.60	1.92	2.16	2.22	2.07	1.80	1.56	1.39	1.32	1.34	1.40	1.48	1.57	1.64	1.68	1.66	1.65	1.72	1.76	1.65	1.38	1.14	1.13	1.18	1.16	1.19	1.33	1.51	1.66	1.70	1.80	1.89	1.92	1.94	1.83	1.59	1.42	1.37	1.26	1.02	0.84	0.94	1.22	1.68	1.99	1.81	1.37	1.17	1.21	1.43	1.72	2.08	2.19	1.71	1.17	0.91	0.90	1.14	1.40	1.49	1.61	1.76	1.69	1.65	1.84	2.14	2.42	2.69	2.80	2.60	2.14	1.79	1.55	1.42	1.34	1.28	1.17	1.06	0.97	0.91	0.91	1.00	1.17	1.33	1.32	1.16	1.09	1.14	1.20	1.25	1.35	1.44	1.50	1.57	1.68	1.81	1.89	1.92	2.10	2.46	2.62	2.31	1.86	1.60	1.50	1.50	1.52	1.46	1.34	1.25	1.25	1.35	1.54	1.71	1.81	1.84	1.84
2.23	2.02	1.67	1.44	1.24	1.04	0.94	1.02	1.25	1.55	1.87	2.10	2.12	1.91	1.63	1.43	1.36	1.39	1.47	1.57	1.69	1.76	1.81	1.83	1.85	1.91	1.96	1.87	1.61	1.32	1.19	1.19	1.17	1.14	1.20	1.35	1.50	1.59	1.72	1.85	1.99	2.07	1.90	1.48	1.29	1.26	1.20	0.99	0.76	0.71	0.93	1.42	1.84	1.79	1.40	1.23	1.25	1.47	1.79	2.20	2.30	1.86	1.29	0.92	0.77	0.89	1.15	1.28	1.42	1.60	1.52	1.37	1.55	1.90	2.12	2.38	2.73	2.87	2.64	2.14	1.75	1.62	1.57	1.48	1.35	1.23	1.15	1.06	0.96	0.94	0.99	1.09	1.11	1.05	1.03	1.07	1.13	1.19	1.30	1.42	1.50	1.56	1.64	1.74	1.85	1.94	2.10	2.42	2.63	2.49	1.97	1.58	1.41	1.34	1.37	1.36	1.32	1.30	1.30	1.35	1.45	1.57	1.74	1.85	1.85
2.30	2.11	1.79	1.59	1.42	1.20	1.03	0.96	1.03	1.24	1.51	1.84	2.03	1.98	1.73	1.48	1.40	1.43	1.50	1.63	1.74	1.84	1.93	1.99	2.05	2.11	2.13	2.06	1.85	1.56	1.30	1.21	1.22	1.22	1.21	1.28	1.36	1.47	1.64	1.81	2.04	2.16	1.99	1.60	1.38	1.29	1.22	1.09	0.85	0.66	0.74	1.19	1.69	1.76	1.43	1.28	1.29	1.50	1.80	2.21	2.35	2.06	1.48	1.03	0.77	0.75	0.94	1.10	1.27	1.50	1.48	1.28	1.42	1.75	1.86	1.97	2.34	2.74	2.89	2.66	2.22	2.05	1.94	1.77	1.61	1.46	1.37	1.30	1.22	1.12	1.06	1.06	1.05	0.99	0.97	1.02	1.07	1.12	1.22	1.34	1.44	1.52	1.59	1.70	1.83	1.96	2.09	2.33	2.59	2.53	2.06	1.64	1.43	1.25	1.17	1.16	1.21	1.31	1.41	1.50	1.58	1.67	1.79	1.85	1.85
2.28	2.15	1.89	1.71	1.60	1.45	1.27	1.08	1.01	1.08	1.24	1.49	1.80	1.92	1.79	1.55	1.43	1.44	1.51	1.63	1.73	1.84	1.95	2.06	2.15	2.24	2.31	2.27	2.14	1.85	1.47	1.22	1.19	1.25	1.34	1.41	1.39	1.43	1.57	1.74	2.03	2.20	2.10	1.83	1.62	1.46	1.36	1.25	1.06	0.77	0.70	0.96	1.51	1.67	1.44	1.29	1.32	1.51	1.76	2.13	2.37	2.22	1.70	1.23	0.87	0.71	0.76	0.93	1.10	1.36	1.41	1.22	1.36	1.66	1.68	1.64	1.90	2.37	2.77	2.89	2.73	2.56	2.39	2.17	1.94	1.71	1.57	1.48	1.38	1.28	1.18	1.13	1.10	1.04	0.98	1.01	1.05	1.07	1.08	1.14	1.27	1.40	1.54	1.69	1.84	1.94	2.03	2.29	2.54	2.47	2.08	1.77	1.60	1.43	1.26	1.14	1.15	1.23	1.34	1.44	1.56	1.68	1.84	1.95	1.95
2.25	2.16	1.92	1.74	1.65	1.56	1.44	1.25	1.10	1.06	1.13	1.28	1.52	1.74	1.75	1.59	1.45	1.39	1.43	1.54	1.64	1.73	1.84	1.97	2.09	2.21	2.33	2.43	2.42	2.22	1.82	1.40	1.19	1.19	1.32	1.49	1.53	1.51	1.54	1.67	1.96	2.17	2.26	2.17	1.94	1.69	1.54	1.41	1.24	0.99	0.76	0.83	1.26	1.54	1.42	1.29	1.33	1.52	1.73	2.06	2.33	2.30	1.92	1.52	1.13	0.84	0.74	0.80	0.94	1.21	1.31	1.14	1.26	1.57	1.55	1.40	1.56	1.95	2.39	2.63	2.65	2.62	2.62	2.53	2.22	1.87	1.71	1.62	1.51	1.39	1.27	1.17	1.12	1.09	1.05	1.05	1.08	1.09	1.08	1.08	1.11	1.26	1.48	1.68	1.84	1.92	2.02	2.29	2.47	2.33	1.97	1.75	1.65	1.56	1.40	1.22	1.13	1.12	1.14	1.17	1.29	1.51	1.83	2.02	2.02
2.29	2.17	1.92	1.73	1.59	1.55	1.49	1.34	1.19	1.08	1.09	1.17	1.31	1.49	1.60	1.56	1.46	1.34	1.28	1.34	1.43	1.51	1.59	1.72	1.89	2.04	2.20	2.39	2.51	2.49	2.22	1.79	1.42	1.22	1.24	1.41	1.53	1.56	1.59	1.65	1.78	1.99	2.31	2.30	2.26	1.98	1.69	1.47	1.29	1.07	0.85	0.78	1.05	1.37	1.36	1.29	1.33	1.52	1.74	2.06	2.32	2.28	1.97	1.69	1.41	1.10	0.85	0.75	0.81	1.05	1.19	1.06	1.11	1.47	1.49	1.24	1.27	1.61	2.00	2.21	2.22	2.33	2.63	2.79	2.52	2.06	1.85	1.81	1.76	1.67	1.56	1.43	1.30	1.20	1.15	1.12	1.12	1.15	1.21	1.27	1.26	1.29	1.48	1.69	1.83	1.97	2.13	2.34	2.45	2.22	1.81	1.62	1.55	1.49	1.39	1.23	1.14	1.13	1.17	1.17	1.20	1.34	1.65	1.88	1.88
2.37	2.22	1.92	1.70	1.55	1.50	1.46	1.37	1.24	1.15	1.13	1.16	1.22	1.33	1.44	1.49	1.47	1.36	1.20	1.16	1.23	1.31	1.39	1.48	1.65	1.85	2.01	2.20	2.43	2.58	2.51	2.17	1.75	1.44	1.36	1.44	1.54	1.63	1.72	1.71	1.61	1.64	1.88	2.20	2.38	2.26	1.89	1.64	1.42	1.17	0.94	0.80	0.92	1.22	1.28	1.26	1.34	1.54	1.78	2.12	2.37	2.24	1.80	1.59	1.44	1.24	1.00	0.79	0.73	0.88	1.06	1.00	0.99	1.32	1.43	1.15	1.04	1.32	1.74	1.90	1.77	1.92	2.46	2.85	2.87	2.48	2.15	2.00	1.96	1.93	1.86	1.77	1.62	1.41	1.25	1.18	1.16	1.16	1.24	1.42	1.52	1.56	1.65	1.80	1.93	2.07	2.25	2.46	2.53	2.24	1.76	1.55	1.47	1.37	1.26	1.18	1.15	1.21	1.35	1.43	1.44	1.44	1.56	1.68	1.68
2.44	2.28	1.95	1.70	1.58	1.51	1.48	1.42	1.34	1.29	1.27	1.26	1.27	1.31	1.38	1.44	1.47	1.41	1.24	1.11	1.14	1.23	1.31	1.37	1.51	1.66	1.80	1.97	2.21	2.48	2.61	2.45	2.07	1.77	1.62	1.61	1.64	1.69	1.79	1.82	1.64	1.42	1.55	1.97	2.34	2.43	2.16	1.92	1.75	1.53	1.23	0.97	0.94	1.11	1.20	1.20	1.29	1.50	1.80	2.23	2.51	2.29	1.69	1.43	1.32	1.20	1.07	0.90	0.77	0.79	0.91	0.91	0.90	1.17	1.36	1.12	0.91	1.09	1.53	1.71	1.52	1.56	2.07	2.63	2.83	2.70	2.41	2.12	1.96	1.92	1.88	1.84	1.77	1.62	1.39	1.25	1.20	1.14	1.15	1.33	1.57	1.71	1.80	1.89	1.97	2.07	2.29	2.57	2.67	2.35	1.86	1.61	1.52	1.42	1.24	1.15	1.13	1.19	1.37	1.56	1.67	1.70	1.72	1.72	1.72
2.48	2.33	2.01	1.80	1.69	1.62	1.55	1.49	1.43	1.40	1.39	1.36	1.33	1.35	1.41	1.46	1.49	1.48	1.36	1.20	1.16	1.21	1.28	1.34	1.42	1.53	1.62	1.74	1.95	2.23	2.51	2.51	2.27	2.00	1.86	1.74	1.63	1.58	1.69	1.86	1.77	1.46	1.41	1.73	2.22	2.43	2.28	2.01	1.88	1.79	1.61	1.29	1.05	1.06	1.14	1.15	1.22	1.41	1.74	2.29	2.65	2.44	1.82	1.47	1.31	1.20	1.10	1.01	0.89	0.82	0.83	0.81	0.82	1.04	1.26	1.10	0.87	0.95	1.36	1.57	1.41	1.33	1.62	2.12	2.47	2.58	2.52	2.20	1.91	1.82	1.78	1.73	1.68	1.62	1.50	1.35	1.25	1.16	1.09	1.16	1.39	1.59	1.71	1.81	1.87	1.95	2.23	2.65	2.83	2.49	1.98	1.68	1.55	1.46	1.29	1.15	1.11	1.14	1.26	1.45	1.63	1.74	1.82	1.85	1.85
2.46	2.33	2.07	1.90	1.80	1.71	1.62	1.55	1.49	1.47	1.45	1.40	1.35	1.39	1.47	1.53	1.57	1.57	1.50	1.37	1.28	1.27	1.31	1.38	1.47	1.54	1.60	1.66	1.78	1.96	2.26	2.44	2.25	2.10	1.96	1.81	1.59	1.40	1.47	1.75	1.82	1.57	1.35	1.55	2.05	2.36	2.31	1.91	1.73	1.72	1.69	1.50	1.22	1.07	1.12	1.19	1.26	1.40	1.66	2.25	2.70	2.63	2.12	1.69	1.45	1.29	1.18	1.09	1.01	0.93	0.86	0.78	0.77	0.93	1.11	1.02	0.81	0.83	1.17	1.41	1.32	1.23	1.37	1.71	2.07	2.39	2.52	2.29	1.97	1.85	1.82	1.77	1.63	1.54	1.49	1.41	1.31	1.21	1.11	1.06	1.16	1.34	1.48	1.62	1.71	1.78	2.11	2.61	2.84	2.65	2.20	1.82	1.58	1.44	1.30	1.17	1.12	1.12	1.17	1.31	1.48	1.58	1.79	1.93	1.93
2.43	2.29	2.06	1.92	1.84	1.78	1.71	1.63	1.56	1.52	1.50	1.43	1.35	1.40	1.51	1.58	1.62	1.64	1.59	1.50	1.44	1.42	1.43	1.45	1.52	1.58	1.62	1.65	1.70	1.80	1.99	2.21	2.11	1.99	1.91	1.89	1.75	1.48	1.36	1.55	1.77	1.68	1.41	1.45	1.91	2.33	2.33	1.90	1.54	1.42	1.41	1.40	1.27	1.10	1.11	1.24	1.36	1.48	1.70	2.15	2.61	2.72	2.40	1.98	1.64	1.43	1.32	1.22	1.13	1.04	0.96	0.89	0.83	0.88	0.97	0.93	0.75	0.72	0.95	1.18	1.15	1.13	1.23	1.45	1.75	2.22	2.49	2.32	1.97	1.80	1.81	1.84	1.76	1.59	1.50	1.45	1.36	1.25	1.12	1.00	0.97	1.12	1.29	1.48	1.59	1.70	2.01	2.45	2.70	2.65	2.44	2.18	1.83	1.57	1.36	1.20	1.14	1.13	1.15	1.25	1.40	1.48	1.63	1.80	1.80
2.38	2.25	2.04	1.93	1.89	1.86	1.82	1.76	1.68	1.61	1.56	1.48	1.39	1.41	1.51	1.58	1.63	1.65	1.64	1.56	1.49	1.48	1.48	1.49	1.52	1.56	1.59	1.63	1.66	1.72	1.81	2.09	1.99	1.84	1.75	1.87	1.93	1.75	1.41	1.37	1.60	1.69	1.53	1.46	1.80	2.29	2.36	1.96	1.50	1.30	1.22	1.20	1.14	1.03	1.06	1.21	1.37	1.52	1.71	2.03	2.46	2.71	2.59	2.18	1.77	1.56	1.44	1.33	1.23	1.12	1.07	1.04	0.98	0.93	0.94	0.90	0.78	0.68	0.75	0.90	0.89	0.94	1.09	1.28	1.54	2.02	2.42	2.39	1.93	1.60	1.55	1.66	1.74	1.68	1.58	1.51	1.42	1.31	1.21	1.09	1.03	1.05	1.16	1.34	1.51	1.70	2.00	2.32	2.46	2.36	2.37	2.38	2.15	1.79	1.45	1.24	1.16	1.19	1.28	1.40	1.52	1.59	1.60	1.62	1.62
2.30	2.22	2.06	1.97	1.92	1.88	1.83	1.80	1.76	1.70	1.63	1.55	1.47	1.46	1.53	1.59	1.63	1.66	1.65	1.58	1.47	1.42	1.42	1.45	1.50	1.54	1.56	1.60	1.64	1.68	1.71	2.33	1.99	1.83	1.58	1.71	1.93	1.96	1.66	1.38	1.43	1.61	1.59	1.52	1.80	2.29	2.42	2.03	1.61	1.42	1.30	1.18	1.03	0.88	0.90	1.08	1.26	1.43	1.61	1.92	2.32	2.68	2.73	2.37	1.93	1.70	1.53	1.40	1.30	1.21	1.16	1.16	1.14	1.07	1.01	0.96	0.87	0.75	0.69	0.68	0.65	0.71	0.92	1.15	1.41	1.80	2.30	2.47	2.13	1.61	1.36	1.38	1.53	1.62	1.62	1.59	1.54	1.45	1.34	1.24	1.19	1.15	1.11	1.18	1.39	1.69	2.01	2.25	2.24	1.98	2.02	2.27	2.30	2.00	1.58	1.30	1.19	1.24	1.40	1.57	1.72	1.80	1.75	1.68	1.68
2.20	2.14	2.02	1.95	1.89	1.83	1.75	1.71	1.73	1.71	1.67	1.58	1.55	1.54	1.57	1.62	1.66	1.68	1.66	1.59	1.48	1.40	1.37	1.39	1.46	1.52	1.56	1.60	1.64	1.66	1.75	1.88	2.05	1.87	1.47	1.45	1.73	1.97	1.90	1.56	1.37	1.47	1.57	1.62	1.87	2.31	2.45	2.11	1.71	1.50	1.39	1.27	1.08	0.84	0.77	0.90	1.14	1.34	1.53	1.84	2.23	2.65	2.79	2.53	2.10	1.82	1.58	1.45	1.38	1.33	1.28	1.27	1.27	1.23	1.18	1.12	1.02	0.86	0.74	0.63	0.52	0.54	0.74	1.04	1.31	1.62	2.06	2.41	2.37	1.97	1.65	1.48	1.50	1.59	1.62	1.62	1.66	1.67	1.54	1.37	1.29	1.29	1.24	1.19	1.31	1.62	1.99	2.15	2.03	1.83	1.77	1.99	2.25	2.20	1.83	1.48	1.30	1.25	1.34	1.52	1.69	1.82	1.85	1.83	1.83
2.17	2.04	1.87	1.83	1.82	1.78	1.68	1.61	1.60	1.63	1.60	1.53	1.53	1.54	1.55	1.58	1.64	1.67	1.65	1.60	1.51	1.43	1.37	1.36	1.41	1.47	1.52	1.59	1.65	1.67	1.72	1.88	2.11	1.96	1.47	1.28	1.47	1.80	1.95	1.80	1.49	1.45	1.55	1.69	1.89	2.29	2.47	2.18	1.69	1.44	1.39	1.32	1.16	0.94	0.80	0.86	1.07	1.30	1.49	1.77	2.16	2.63	2.81	2.62	2.24	1.90	1.65	1.51	1.44	1.41	1.41	1.42	1.44	1.42	1.37	1.32	1.22	1.05	0.88	0.74	0.55	0.47	0.58	0.90	1.21	1.47	1.78	2.20	2.36	2.20	1.94	1.75	1.67	1.67	1.68	1.66	1.76	1.94	1.92	1.70	1.52	1.48	1.46	1.38	1.39	1.67	1.95	1.99	1.87	1.79	1.68	1.72	2.06	2.23	2.04	1.70	1.44	1.29	1.25	1.36	1.51	1.67	1.85	1.97	1.97
2.21	2.01	1.71	1.68	1.75	1.76	1.68	1.58	1.51	1.51	1.47	1.44	1.46	1.47	1.46	1.47	1.55	1.64	1.67	1.62	1.55	1.47	1.39	1.35	1.37	1.43	1.48	1.55	1.65	1.69	1.72	1.83	2.09	2.08	1.61	1.20	1.25	1.56	1.86	1.87	1.64	1.49	1.50	1.60	1.78	2.23	2.54	2.29	1.72	1.45	1.40	1.35	1.25	1.07	0.96	0.96	1.06	1.26	1.44	1.71	2.10	2.58	2.85	2.73	2.43	2.14	1.94	1.80	1.71	1.70	1.72	1.75	1.75	1.75	1.72	1.67	1.57	1.40	1.20	0.97	0.72	0.51	0.48	0.69	1.06	1.35	1.57	1.91	2.20	2.20	1.94	1.80	1.75	1.75	1.78	1.79	1.84	2.00	2.11	2.08	1.93	1.78	1.72	1.64	1.62	1.80	1.96	1.86	1.73	1.71	1.58	1.51	1.77	2.11	2.09	1.75	1.50	1.35	1.26	1.27	1.39	1.56	1.81	1.98	1.98
2.24	2.08	1.71	1.57	1.65	1.75	1.75	1.63	1.49	1.42	1.41	1.44	1.48	1.48	1.45	1.45	1.52	1.63	1.69	1.67	1.60	1.51	1.41	1.35	1.36	1.41	1.48	1.57	1.69	1.69	1.60	1.68	2.00	2.16	1.89	1.32	1.16	1.35	1.66	1.79	1.68	1.52	1.44	1.45	1.63	2.12	2.56	2.45	1.93	1.58	1.46	1.42	1.36	1.23	1.12	1.06	1.08	1.22	1.38	1.63	1.99	2.46	2.81	2.88	2.66	2.45	2.27	2.11	2.03	1.99	2.00	2.03	2.03	2.03	2.03	2.02	1.95	1.84	1.66	1.40	1.08	0.73	0.53	0.55	0.82	1.17	1.41	1.70	2.02	2.08	1.85	1.72	1.68	1.70	1.75	1.78	1.80	1.85	1.96	2.06	2.08	2.03	1.95	1.83	1.76	1.88	2.03	1.89	1.74	1.67	1.50	1.32	1.47	1.92	2.06	1.79	1.55	1.45	1.36	1.32	1.38	1.55	1.76	1.89	1.89
2.26	2.14	1.84	1.58	1.55	1.69	1.79	1.72	1.55	1.42	1.46	1.55	1.63	1.61	1.57	1.54	1.56	1.64	1.71	1.72	1.68	1.59	1.46	1.37	1.36	1.42	1.52	1.67	1.77	1.64	1.37	1.45	1.80	2.12	2.10	1.66	1.31	1.32	1.55	1.71	1.69	1.60	1.53	1.49	1.59	1.96	2.42	2.47	2.13	1.81	1.66	1.55	1.46	1.33	1.20	1.11	1.11	1.19	1.30	1.47	1.78	2.22	2.61	2.78	2.73	2.50	2.26	2.06	1.94	1.89	1.90	1.94	1.96	1.95	1.97	2.02	2.06	2.03	1.95	1.82	1.61	1.25	0.83	0.62	0.67	0.95	1.25	1.57	1.85	1.91	1.77	1.66	1.58	1.53	1.51	1.50	1.53	1.61	1.67	1.73	1.87	2.00	2.05	1.96	1.82	1.81	1.95	1.97	1.89	1.77	1.55	1.28	1.29	1.69	1.95	1.81	1.61	1.55	1.53	1.49	1.48	1.52	1.65	1.76	1.76
2.26	2.16	1.90	1.66	1.53	1.57	1.73	1.78	1.62	1.45	1.48	1.62	1.72	1.73	1.68	1.62	1.60	1.64	1.71	1.75	1.74	1.68	1.56	1.44	1.38	1.42	1.55	1.77	1.88	1.55	1.18	1.22	1.50	1.90	2.08	1.92	1.57	1.47	1.60	1.73	1.74	1.75	1.74	1.67	1.67	1.87	2.22	2.37	2.30	2.13	1.94	1.75	1.57	1.36	1.22	1.12	1.10	1.13	1.20	1.33	1.58	1.93	2.32	2.61	2.68	2.37	2.00	1.74	1.56	1.49	1.51	1.59	1.64	1.67	1.70	1.79	1.93	1.96	1.89	1.87	1.84	1.71	1.39	0.99	0.78	0.82	1.07	1.44	1.70	1.74	1.69	1.61	1.50	1.41	1.35	1.33	1.34	1.45	1.56	1.60	1.73	1.92	2.10	2.14	1.87	1.56	1.65	1.82	1.88	1.86	1.74	1.45	1.27	1.50	1.79	1.75	1.62	1.61	1.70	1.77	1.75	1.63	1.55	1.54	1.54
2.28	2.13	1.84	1.64	1.50	1.46	1.60	1.75	1.65	1.43	1.42	1.53	1.64	1.70	1.68	1.62	1.58	1.60	1.67	1.74	1.76	1.73	1.66	1.55	1.44	1.45	1.58	1.86	1.98	1.57	1.10	1.05	1.21	1.52	1.91	1.94	1.71	1.61	1.69	1.80	1.84	1.87	1.88	1.87	1.85	1.91	2.04	2.17	2.21	2.19	2.13	1.95	1.69	1.42	1.24	1.13	1.09	1.09	1.17	1.28	1.49	1.80	2.15	2.53	2.68	2.31	1.81	1.47	1.28	1.19	1.17	1.25	1.34	1.39	1.44	1.52	1.69	1.75	1.65	1.60	1.69	1.75	1.65	1.43	1.14	0.94	0.98	1.27	1.54	1.61	1.60	1.58	1.51	1.43	1.42	1.45	1.45	1.52	1.64	1.73	1.86	2.00	2.21	2.37	2.00	1.46	1.34	1.46	1.60	1.71	1.74	1.58	1.32	1.40	1.64	1.67	1.58	1.54	1.64	1.84	1.98	1.95	1.70	1.53	1.53
2.35	2.14	1.78	1.56	1.42	1.34	1.44	1.65	1.63	1.41	1.33	1.36	1.50	1.60	1.62	1.60	1.56	1.55	1.60	1.70	1.74	1.72	1.70	1.67	1.58	1.53	1.63	1.92	2.06	1.71	1.18	0.98	1.01	1.25	1.64	1.79	1.69	1.62	1.66	1.77	1.85	1.88	1.90	1.90	1.88	1.85	1.90	1.93	1.95	2.06	2.17	2.10	1.81	1.51	1.30	1.18	1.13	1.12	1.20	1.30	1.47	1.77	2.14	2.57	2.78	2.40	1.69	1.47	1.29	1.17	1.05	1.00	1.07	1.15	1.20	1.28	1.47	1.60	1.51	1.37	1.40	1.50	1.50	1.42	1.30	1.14	1.04	1.16	1.37	1.49	1.53	1.57	1.56	1.53	1.56	1.64	1.67	1.68	1.74	1.80	1.89	2.05	2.36	2.61	2.34	1.69	1.33	1.22	1.25	1.33	1.45	1.48	1.36	1.33	1.51	1.63	1.61	1.52	1.42	1.49	1.84	2.04	1.93	1.76	1.76
2.41	2.19	1.80	1.56	1.39	1.23	1.26	1.47	1.53	1.37	1.24	1.24	1.37	1.49	1.54	1.55	1.52	1.49	1.52	1.62	1.70	1.71	1.72	1.76	1.72	1.67	1.72	1.95	2.11	1.88	1.37	1.04	0.94	1.07	1.38	1.58	1.55	1.52	1.55	1.64	1.76	1.83	1.85	1.84	1.81	1.79	1.81	1.78	1.65	1.77	2.03	2.13	1.92	1.62	1.40	1.27	1.20	1.17	1.21	1.29	1.43	1.72	2.11	2.62	2.68	2.59	2.02	1.66	1.44	1.29	1.13	0.98	0.95	1.00	1.04	1.10	1.29	1.46	1.43	1.28	1.24	1.28	1.27	1.21	1.16	1.14	1.12	1.15	1.27	1.39	1.47	1.54	1.59	1.61	1.63	1.68	1.70	1.69	1.69	1.71	1.80	1.99	2.36	2.72	2.72	2.23	1.62	1.28	1.16	1.13	1.14	1.22	1.29	1.31	1.41	1.55	1.69	1.75	1.60	1.42	1.50	1.81	1.96	1.95	1.95
2.43	2.22	1.87	1.66	1.48	1.27	1.15	1.25	1.34	1.26	1.18	1.18	1.30	1.41	1.46	1.49	1.48	1.44	1.43	1.51	1.62	1.67	1.71	1.76	1.80	1.80	1.81	1.98	2.11	1.97	1.53	1.18	0.98	0.94	1.17	1.35	1.41	1.45	1.47	1.54	1.65	1.76	1.79	1.79	1.81	1.82	1.78	1.63	1.50	1.58	1.86	2.05	1.94	1.68	1.46	1.34	1.25	1.19	1.20	1.27	1.39	1.64	2.06	2.60	2.92	2.75	2.24	1.81	1.55	1.37	1.23	1.10	1.01	0.98	0.95	0.98	1.14	1.31	1.31	1.25	1.22	1.23	1.22	1.14	1.04	1.03	1.10	1.17	1.24	1.32	1.39	1.44	1.51	1.56	1.59	1.62	1.59	1.58	1.59	1.64	1.74	1.93	2.23	2.62	2.83	2.60	2.03	1.64	1.46	1.31	1.17	1.12	1.20	1.31	1.39	1.47	1.62	1.84	1.91	1.74	1.51	1.60	1.87	1.99	1.99
2.36	2.21	1.96	1.80	1.66	1.47	1.25	1.20	1.21	1.19	1.18	1.22	1.33	1.42	1.48	1.50	1.50	1.45	1.39	1.42	1.51	1.60	1.65	1.73	1.82	1.87	1.90	2.01	2.12	2.01	1.58	1.29	1.11	0.97	1.03	1.20	1.36	1.46	1.49	1.53	1.62	1.73	1.77	1.82	1.89	1.88	1.69	1.50	1.35	1.37	1.64	1.90	1.87	1.64	1.45	1.35	1.26	1.20	1.19	1.24	1.36	1.57	1.99	2.50	2.84	2.80	1.77	1.89	1.62	1.45	1.33	1.25	1.17	1.06	0.96	0.97	1.08	1.19	1.23	1.24	1.24	1.23	1.22	1.15	1.04	0.99	1.04	1.13	1.21	1.28	1.31	1.33	1.40	1.47	1.52	1.51	1.50	1.53	1.56	1.62	1.72	1.89	2.12	2.45	2.75	2.67	2.28	1.97	1.83	1.69	1.50	1.31	1.24	1.32	1.43	1.47	1.50	1.62	1.87	1.95	1.82	1.76	1.91	2.00	2.00
2.27	2.17	1.98	1.90	1.84	1.72	1.53	1.37	1.26	1.22	1.25	1.33	1.44	1.52	1.60	1.64	1.63	1.61	1.53	1.47	1.51	1.58	1.63	1.73	1.82	1.91	2.00	2.11	2.18	2.04	1.70	1.47	1.33	1.17	1.10	1.19	1.38	1.50	1.56	1.60	1.68	1.74	1.82	1.95	1.97	1.81	1.56	1.35	1.19	1.17	1.43	1.72	1.77	1.55	1.39	1.31	1.25	1.21	1.20	1.24	1.37	1.57	1.96	2.45	2.78	2.68	2.42	1.94	1.70	1.57	1.49	1.42	1.31	1.20	1.10	1.07	1.13	1.19	1.23	1.27	1.28	1.25	1.24	1.18	1.10	1.04	1.04	1.10	1.18	1.24	1.26	1.27	1.33	1.39	1.42	1.42	1.45	1.50	1.53	1.58	1.69	1.86	2.08	2.35	2.59	2.57	2.26	1.96	1.89	1.86	1.71	1.46	1.32	1.35	1.46	1.57	1.61	1.60	1.70	1.86	1.92	1.94	2.04	2.12	2.12
2.22	2.10	1.90	1.85	1.89	1.89	1.77	1.59	1.40	1.30	1.30	1.40	1.52	1.62	1.71	1.77	1.81	1.84	1.83	1.75	1.71	1.69	1.72	1.79	1.86	1.92	2.04	2.20	2.26	2.06	1.76	1.56	1.47	1.34	1.21	1.21	1.32	1.45	1.56	1.65	1.73	1.80	1.95	2.12	2.05	1.68	1.41	1.25	1.10	1.02	1.23	1.52	1.58	1.45	1.33	1.28	1.24	1.24	1.25	1.29	1.38	1.59	1.96	2.43	2.78	2.64	2.44	2.04	1.85	1.70	1.61	1.54	1.44	1.36	1.28	1.21	1.19	1.20	1.24	1.32	1.36	1.32	1.29	1.21	1.12	1.06	1.06	1.09	1.14	1.20	1.21	1.23	1.28	1.32	1.36	1.38	1.38	1.42	1.48	1.55	1.65	1.80	2.04	2.29	2.51	2.50	2.10	1.68	1.65	1.76	1.70	1.48	1.33	1.33	1.43	1.61	1.77	1.75	1.70	1.71	1.78	1.87	2.12	2.32	2.32
2.21	2.05	1.80	1.70	1.75	1.84	1.87	1.74	1.53	1.36	1.31	1.36	1.48	1.60	1.69	1.77	1.84	1.89	1.94	1.94	1.89	1.82	1.80	1.83	1.86	1.90	1.99	2.20	2.32	2.12	1.72	1.50	1.39	1.29	1.19	1.19	1.27	1.38	1.49	1.62	1.75	1.85	2.12	2.27	2.09	1.52	1.26	1.17	1.03	0.94	1.02	1.23	1.36	1.33	1.29	1.28	1.27	1.28	1.29	1.27	1.34	1.53	1.85	2.31	2.71	2.96	2.64	2.23	2.06	1.89	1.71	1.61	1.57	1.57	1.51	1.38	1.30	1.30	1.36	1.44	1.48	1.42	1.33	1.21	1.13	1.08	1.06	1.08	1.11	1.15	1.16	1.17	1.21	1.29	1.35	1.38	1.39	1.41	1.49	1.59	1.66	1.78	2.00	2.25	2.52	2.56	2.03	1.49	1.39	1.49	1.53	1.44	1.30	1.28	1.35	1.51	1.66	1.69	1.67	1.66	1.72	1.85	2.20	2.45	2.45
2.20	2.05	1.78	1.61	1.56	1.62	1.76	1.77	1.60	1.41	1.29	1.26	1.31	1.40	1.49	1.57	1.66	1.71	1.75	1.80	1.81	1.77	1.74	1.77	1.81	1.86	1.92	2.15	2.32	2.18	1.84	1.56	1.33	1.16	1.11	1.17	1.29	1.38	1.45	1.55	1.71	1.88	2.26	2.54	2.23	1.51	1.21	1.12	1.02	0.93	0.92	1.02	1.15	1.21	1.25	1.29	1.31	1.33	1.34	1.29	1.29	1.41	1.66	2.03	2.50	2.90	2.93	2.59	2.29	2.09	1.87	1.72	1.72	1.82	1.84	1.75	1.67	1.63	1.62	1.62	1.61	1.51	1.37	1.23	1.14	1.08	1.06	1.07	1.09	1.12	1.12	1.10	1.15	1.28	1.36	1.41	1.45	1.47	1.52	1.60	1.67	1.76	1.93	2.20	2.60	2.71	2.16	1.58	1.36	1.32	1.33	1.28	1.21	1.19	1.22	1.31	1.44	1.53	1.59	1.68	1.78	1.89	2.22	2.46	2.46
2.19	2.05	1.77	1.58	1.43	1.41	1.56	1.67	1.60	1.42	1.27	1.17	1.12	1.14	1.21	1.30	1.41	1.52	1.54	1.52	1.55	1.59	1.61	1.64	1.68	1.76	1.93	2.15	2.24	2.09	1.92	1.80	1.58	1.31	1.13	1.14	1.25	1.36	1.40	1.47	1.63	1.90	2.35	2.67	2.43	1.72	1.35	1.23	1.12	1.03	0.98	1.00	1.06	1.13	1.20	1.26	1.33	1.41	1.46	1.43	1.39	1.43	1.54	1.80	2.20	2.61	2.85	2.85	2.60	2.33	2.19	2.07	2.05	2.12	2.16	2.08	1.96	1.89	1.85	1.80	1.75	1.63	1.49	1.31	1.18	1.10	1.07	1.06	1.06	1.09	1.09	1.06	1.12	1.24	1.33	1.44	1.52	1.52	1.55	1.59	1.64	1.72	1.87	2.15	2.61	2.79	2.41	1.84	1.58	1.42	1.30	1.18	1.10	1.09	1.08	1.12	1.25	1.41	1.51	1.64	1.78	1.89	2.17	2.39	2.39
2.22	2.03	1.70	1.52	1.40	1.35	1.42	1.53	1.54	1.43	1.29	1.15	1.04	0.99	0.98	1.05	1.22	1.42	1.52	1.47	1.41	1.44	1.49	1.51	1.54	1.67	1.98	2.21	2.13	1.77	1.68	1.75	1.73	1.54	1.26	1.13	1.15	1.27	1.33	1.40	1.56	1.89	2.33	2.67	2.60	2.12	1.73	1.55	1.39	1.25	1.18	1.15	1.13	1.13	1.16	1.20	1.26	1.38	1.49	1.52	1.52	1.49	1.54	1.69	1.91	2.18	2.55	2.78	2.57	2.50	2.42	2.33	2.23	1.96	2.03	2.12	1.99	1.91	1.88	1.88	1.84	1.75	1.63	1.41	1.24	1.14	1.08	1.05	1.03	1.04	1.05	1.04	1.10	1.17	1.24	1.36	1.47	1.50	1.52	1.56	1.63	1.71	1.85	2.11	2.57	2.83	2.53	1.93	1.63	1.46	1.30	1.14	1.03	0.98	0.96	1.00	1.14	1.30	1.44	1.58	1.75	1.93	2.15	2.28	2.28
2.28	2.05	1.66	1.46	1.38	1.37	1.39	1.45	1.50	1.48	1.39	1.27	1.15	1.03	0.93	0.89	1.00	1.30	1.55	1.59	1.50	1.42	1.35	1.31	1.40	1.63	2.02	2.24	2.03	1.48	1.31	1.42	1.57	1.56	1.33	1.12	1.05	1.14	1.27	1.36	1.49	1.78	2.19	2.54	2.59	2.33	2.06	1.89	1.68	1.49	1.34	1.26	1.19	1.16	1.16	1.18	1.23	1.31	1.39	1.44	1.47	1.52	1.60	1.66	1.77	1.93	2.28	2.61	2.63	2.43	2.32	2.20	2.02	1.98	2.03	2.02	1.91	1.77	1.78	1.86	1.87	1.80	1.71	1.53	1.32	1.17	1.09	1.04	1.01	1.00	1.00	1.02	1.07	1.08	1.11	1.21	1.31	1.37	1.40	1.48	1.62	1.72	1.81	2.04	2.56	2.90	2.54	1.84	1.47	1.31	1.15	1.02	0.96	0.94	0.96	1.03	1.14	1.28	1.41	1.57	1.76	1.99	2.14	2.19	2.19
2.29	2.09	1.74	1.51	1.42	1.41	1.43	1.47	1.53	1.57	1.55	1.49	1.41	1.26	1.07	0.90	0.86	1.11	1.53	1.77	1.78	1.62	1.37	1.17	1.23	1.59	2.04	2.25	1.97	1.38	1.12	1.11	1.27	1.34	1.26	1.14	1.09	1.12	1.21	1.33	1.48	1.73	2.04	2.39	2.48	2.27	2.07	1.99	1.85	1.64	1.43	1.26	1.17	1.16	1.18	1.20	1.22	1.27	1.31	1.36	1.41	1.50	1.60	1.63	1.68	1.85	2.19	2.48	2.46	2.24	2.11	1.98	1.80	1.74	1.85	1.96	1.87	1.65	1.60	1.75	1.82	1.75	1.67	1.56	1.37	1.19	1.08	1.02	0.99	0.97	0.95	0.98	1.01	0.97	0.96	1.03	1.14	1.23	1.29	1.40	1.57	1.69	1.76	1.96	2.50	2.96	2.79	2.05	1.55	1.31	1.14	1.00	0.96	0.99	1.08	1.19	1.27	1.37	1.47	1.62	1.85	2.06	2.18	2.22	2.22
2.25	2.10	1.81	1.61	1.51	1.48	1.50	1.55	1.61	1.69	1.74	1.76	1.73	1.62	1.41	1.14	0.89	0.92	1.34	1.82	2.03	1.96	1.63	1.24	1.19	1.52	1.97	2.21	2.00	1.47	1.15	1.00	1.01	1.08	1.12	1.15	1.20	1.27	1.31	1.36	1.51	1.73	2.01	2.33	2.39	2.10	1.91	1.89	1.84	1.74	1.55	1.33	1.18	1.15	1.18	1.21	1.24	1.26	1.32	1.38	1.43	1.50	1.58	1.60	1.64	1.85	2.21	2.43	2.30	2.08	1.98	1.92	1.82	1.68	1.68	1.86	1.87	1.63	1.45	1.57	1.72	1.65	1.54	1.45	1.33	1.18	1.05	0.97	0.95	0.95	0.94	0.96	0.95	0.89	0.85	0.89	1.01	1.12	1.22	1.36	1.54	1.67	1.76	1.93	2.35	2.87	3.00	2.56	1.94	1.55	1.30	1.13	1.03	1.05	1.18	1.36	1.47	1.53	1.58	1.66	1.83	2.05	2.23	2.30	2.30
2.21	2.07	1.82	1.64	1.56	1.54	1.56	1.62	1.70	1.81	1.91	1.98	1.97	1.89	1.72	1.48	1.13	0.89	1.05	1.61	2.06	2.22	2.05	1.66	1.37	1.48	1.83	2.08	2.02	1.68	1.38	1.17	1.04	0.99	1.02	1.12	1.24	1.36	1.41	1.45	1.57	1.77	2.06	2.36	2.37	2.01	1.79	1.74	1.71	1.70	1.63	1.44	1.23	1.15	1.17	1.22	1.25	1.26	1.34	1.42	1.45	1.50	1.57	1.58	1.66	1.91	2.26	2.39	2.16	1.98	1.90	1.85	1.87	1.75	1.59	1.70	1.83	1.69	1.43	1.42	1.55	1.54	1.44	1.34	1.25	1.14	1.01	0.90	0.89	0.93	0.97	1.00	0.97	0.89	0.82	0.84	0.96	1.10	1.22	1.35	1.52	1.68	1.80	1.94	2.18	2.56	2.86	2.76	2.27	1.75	1.43	1.21	1.07	1.06	1.16	1.33	1.50	1.60	1.65	1.69	1.74	1.92	2.21	2.35	2.35
2.16	2.05	1.83	1.64	1.55	1.54	1.57	1.62	1.69	1.79	1.92	2.03	2.10	2.07	1.99	1.83	1.49	1.07	0.92	1.26	1.81	2.22	2.26	2.06	1.75	1.60	1.75	1.92	1.92	1.78	1.63	1.46	1.28	1.11	1.03	1.06	1.16	1.27	1.38	1.46	1.60	1.81	2.13	2.42	2.40	1.99	1.70	1.59	1.50	1.50	1.55	1.46	1.26	1.14	1.14	1.19	1.23	1.26	1.32	1.41	1.44	1.48	1.53	1.59	1.71	2.01	2.32	2.36	2.04	1.88	1.83	1.74	1.82	1.85	1.68	1.63	1.75	1.74	1.54	1.42	1.46	1.46	1.40	1.33	1.23	1.13	0.98	0.83	0.80	0.86	0.95	1.05	1.07	0.98	0.88	0.86	0.95	1.11	1.27	1.38	1.50	1.66	1.83	1.95	2.08	2.27	2.58	2.69	2.36	1.84	1.52	1.30	1.15	1.08	1.09	1.18	1.30	1.43	1.55	1.64	1.70	1.84	2.18	2.39	2.39
2.10	2.01	1.82	1.64	1.53	1.49	1.51	1.52	1.53	1.59	1.71	1.88	2.06	2.15	2.17	2.15	1.92	1.44	1.01	1.02	1.44	1.96	2.20	2.24	2.08	1.86	1.78	1.77	1.69	1.65	1.64	1.60	1.50	1.27	1.08	1.01	1.05	1.15	1.28	1.43	1.61	1.84	2.18	2.49	2.48	2.03	1.65	1.47	1.35	1.31	1.36	1.35	1.20	1.08	1.06	1.09	1.16	1.25	1.30	1.36	1.40	1.42	1.47	1.57	1.75	2.09	2.44	2.42	2.00	1.75	1.73	1.62	1.62	1.78	1.77	1.66	1.69	1.75	1.66	1.54	1.49	1.42	1.37	1.36	1.31	1.16	1.00	0.82	0.73	0.76	0.87	1.01	1.12	1.11	1.02	0.93	0.93	1.04	1.20	1.33	1.47	1.63	1.81	1.94	2.06	2.20	2.47	2.58	2.26	1.83	1.60	1.44	1.28	1.15	1.09	1.12	1.20	1.29	1.42	1.59	1.75	1.91	2.22	2.41	2.41
2.05	1.97	1.77	1.63	1.52	1.46	1.46	1.45	1.39	1.36	1.40	1.56	1.82	2.04	2.20	2.29	2.25	1.94	1.39	1.06	1.21	1.66	1.96	2.30	2.25	2.09	1.87	1.71	1.53	1.43	1.42	1.48	1.49	1.33	1.12	1.00	1.01	1.12	1.28	1.44	1.62	1.86	2.17	2.52	2.57	2.16	1.70	1.46	1.32	1.23	1.21	1.20	1.10	0.99	0.97	1.00	1.11	1.23	1.26	1.30	1.34	1.31	1.36	1.54	1.77	2.15	2.54	2.55	2.08	1.67	1.60	1.52	1.47	1.60	1.70	1.68	1.68	1.75	1.77	1.72	1.64	1.49	1.39	1.42	1.41	1.25	1.06	0.90	0.77	0.77	0.84	0.96	1.11	1.18	1.14	1.04	0.95	0.96	1.07	1.21	1.37	1.54	1.74	1.89	2.05	2.27	2.51	2.48	2.09	1.74	1.55	1.44	1.32	1.20	1.15	1.20	1.29	1.37	1.47	1.62	1.81	2.03	2.31	2.44	2.44
2.03	1.92	1.71	1.60	1.52	1.47	1.49	1.50	1.46	1.35	1.23	1.22	1.41	1.73	2.01	2.20	2.34	2.30	1.95	1.39	1.26	1.49	1.72	2.05	2.30	2.25	1.99	1.75	1.53	1.33	1.21	1.21	1.27	1.25	1.13	1.03	1.03	1.12	1.26	1.43	1.61	1.85	2.13	2.49	2.62	2.28	1.76	1.47	1.34	1.27	1.22	1.17	1.08	0.98	0.96	1.01	1.14	1.25	1.26	1.27	1.28	1.22	1.24	1.46	1.76	2.12	2.53	2.65	2.30	1.84	1.66	1.56	1.48	1.51	1.60	1.66	1.71	1.78	1.84	1.83	1.75	1.61	1.50	1.51	1.51	1.38	1.24	1.12	1.01	0.95	0.95	1.01	1.10	1.18	1.20	1.14	1.04	1.01	1.08	1.22	1.36	1.48	1.61	1.78	1.99	2.31	2.56	2.42	1.90	1.55	1.37	1.29	1.22	1.16	1.17	1.24	1.33	1.41	1.49	1.63	1.82	2.07	2.37	2.51	2.51
2.01	1.89	1.68	1.58	1.52	1.50	1.52	1.60	1.65	1.57	1.37	1.18	1.15	1.33	1.64	1.93	2.18	2.46	2.30	1.86	1.50	1.51	1.65	2.01	2.26	2.32	2.16	1.93	1.67	1.44	1.24	1.14	1.11	1.11	1.07	1.01	1.01	1.07	1.20	1.38	1.58	1.81	2.07	2.45	2.65	2.33	1.78	1.54	1.46	1.42	1.40	1.31	1.17	1.06	1.03	1.10	1.25	1.35	1.37	1.35	1.33	1.28	1.29	1.46	1.75	2.04	2.40	2.64	2.57	2.21	1.91	1.75	1.62	1.56	1.60	1.65	1.71	1.80	1.87	1.88	1.81	1.67	1.59	1.63	1.67	1.63	1.56	1.51	1.41	1.23	1.11	1.09	1.14	1.19	1.21	1.19	1.12	1.08	1.14	1.28	1.45	1.53	1.58	1.68	1.89	2.33	2.64	2.38	1.75	1.36	1.19	1.13	1.12	1.12	1.14	1.18	1.23	1.30	1.39	1.54	1.78	2.08	2.39	2.52	2.52
1.98	1.84	1.65	1.56	1.53	1.51	1.53	1.63	1.79	1.87	1.76	1.50	1.25	1.19	1.35	1.61	1.89	2.21	2.36	2.20	1.87	1.71	1.88	2.02	2.17	2.27	2.27	2.16	1.93	1.72	1.53	1.35	1.21	1.12	1.04	0.98	0.98	1.04	1.16	1.32	1.51	1.76	2.04	2.45	2.71	2.43	1.96	1.76	1.67	1.60	1.56	1.48	1.29	1.13	1.12	1.22	1.36	1.49	1.57	1.57	1.54	1.53	1.55	1.63	1.79	1.98	2.25	2.58	2.36	2.46	2.11	1.89	1.73	1.63	1.61	1.65	1.69	1.80	1.89	1.92	1.90	1.86	1.83	1.88	1.86	1.77	1.70	1.72	1.70	1.51	1.29	1.20	1.21	1.23	1.23	1.23	1.19	1.12	1.10	1.23	1.42	1.56	1.63	1.67	1.86	2.33	2.64	2.34	1.75	1.42	1.23	1.13	1.12	1.13	1.15	1.16	1.19	1.26	1.34	1.48	1.74	2.08	2.39	2.50	2.50
1.93	1.79	1.60	1.52	1.52	1.54	1.55	1.63	1.80	1.97	2.02	1.93	1.71	1.46	1.37	1.44	1.63	1.94	2.17	2.24	2.09	1.88	1.89	2.05	2.13	2.14	2.21	2.25	2.17	1.98	1.76	1.57	1.40	1.28	1.14	1.03	1.00	1.03	1.14	1.29	1.47	1.71	2.00	2.43	2.71	2.51	2.08	1.86	1.73	1.59	1.53	1.51	1.38	1.19	1.14	1.21	1.33	1.47	1.62	1.69	1.70	1.72	1.73	1.75	1.81	1.91	2.09	2.47	2.74	2.61	2.23	1.95	1.79	1.65	1.57	1.57	1.66	1.82	1.91	1.92	1.93	1.94	1.94	1.98	2.00	1.81	1.58	1.60	1.69	1.64	1.47	1.33	1.29	1.30	1.30	1.30	1.30	1.25	1.13	1.12	1.26	1.45	1.62	1.71	1.87	2.27	2.51	2.28	1.88	1.68	1.49	1.30	1.20	1.18	1.19	1.23	1.27	1.36	1.45	1.55	1.75	2.09	2.40	2.52	2.52
1.88	1.75	1.56	1.49	1.52	1.55	1.56	1.59	1.72	1.89	2.03	2.11	2.07	1.93	1.72	1.56	1.55	1.75	1.88	2.68	2.03	2.52	2.35	2.14	2.17	2.05	2.03	2.15	2.22	2.13	1.90	1.66	1.46	1.35	1.21	1.07	1.01	1.03	1.13	1.28	1.44	1.65	1.92	2.34	2.64	2.48	2.00	1.74	1.57	1.42	1.34	1.36	1.33	1.20	1.10	1.14	1.23	1.34	1.49	1.60	1.65	1.68	1.70	1.74	1.81	1.84	1.96	2.38	2.77	2.73	2.36	2.06	1.89	1.71	1.53	1.45	1.54	1.75	1.90	1.87	1.77	1.68	1.66	1.79	1.98	1.92	1.53	1.34	1.42	1.52	1.50	1.41	1.36	1.35	1.35	1.35	1.40	1.45	1.38	1.22	1.23	1.37	1.56	1.74	1.91	2.22	2.36	2.08	1.78	1.73	1.63	1.42	1.25	1.22	1.25	1.31	1.35	1.41	1.52	1.63	1.80	2.14	2.45	2.57	2.57
1.83	1.72	1.56	1.50	1.53	1.56	1.58	1.60	1.67	1.75	1.86	1.99	2.07	2.06	1.96	1.79	1.65	1.62	1.70	1.84	1.94	1.94	2.01	2.20	2.28	2.08	1.85	1.91	2.11	2.18	2.02	1.75	1.46	1.30	1.17	1.04	0.99	1.03	1.11	1.22	1.35	1.53	1.81	2.27	2.64	2.54	1.97	1.59	1.46	1.35	1.23	1.18	1.17	1.11	1.06	1.10	1.18	1.25	1.36	1.46	1.52	1.59	1.67	1.74	1.80	1.82	1.90	2.27	2.72	2.80	2.49	2.17	2.00	1.81	1.55	1.40	1.45	1.70	1.90	1.85	1.62	1.34	1.22	1.36	1.73	1.91	1.75	1.38	1.24	1.29	1.39	1.42	1.40	1.39	1.38	1.39	1.46	1.62	1.70	1.60	1.53	1.53	1.63	1.81	2.01	2.25	2.24	1.81	1.50	1.48	1.50	1.40	1.26	1.22	1.25	1.31	1.37	1.43	1.52	1.63	1.82	2.17	2.48	2.59	2.59
1.76	1.70	1.59	1.52	1.54	1.60	1.64	1.64	1.61	1.60	1.65	1.78	1.89	1.95	1.93	1.83	2.03	1.88	1.81	1.82	1.89	1.97	2.07	2.24	2.37	2.23	1.84	1.71	1.93	2.14	2.13	1.93	1.63	1.39	1.23	1.07	1.01	1.03	1.09	1.19	1.30	1.45	1.76	2.23	2.66	2.65	2.17	1.71	1.49	1.40	1.30	1.17	1.07	1.01	1.01	1.07	1.17	1.24	1.31	1.40	1.47	1.55	1.65	1.75	1.82	1.85	1.93	2.16	2.55	2.73	2.55	2.28	2.17	2.06	1.86	1.68	1.62	1.76	1.95	1.97	1.71	1.29	1.10	1.09	1.31	1.66	1.77	1.62	1.37	1.28	1.33	1.40	1.42	1.42	1.41	1.41	1.47	1.65	1.86	1.94	1.91	1.85	1.87	1.99	2.22	2.35	2.14	1.68	1.36	1.22	1.24	1.25	1.20	1.18	1.19	1.24	1.32	1.42	1.52	1.61	1.79	2.13	2.45	2.57	2.57
1.64	1.65	1.61	1.52	1.51	1.57	1.61	1.59	1.53	1.49	1.53	1.65	1.77	1.84	1.83	1.77	2.27	1.67	1.64	1.68	1.78	1.90	2.03	2.21	2.39	2.36	1.97	1.64	1.73	2.01	2.14	2.09	1.87	1.65	1.44	1.24	1.11	1.08	1.14	1.23	1.33	1.45	1.74	2.19	2.64	2.70	2.26	1.78	1.50	1.35	1.27	1.17	1.03	0.94	0.94	1.02	1.14	1.23	1.30	1.38	1.48	1.56	1.64	1.77	1.88	1.94	1.98	2.12	2.39	2.60	2.58	2.46	2.38	2.31	2.20	2.01	1.84	1.84	1.90	2.12	2.02	1.67	1.37	1.15	1.13	1.25	1.44	1.55	1.52	1.42	1.39	1.42	1.44	1.46	1.44	1.42	1.43	1.55	1.75	1.91	2.00	2.03	2.07	2.17	2.42	2.58	2.18	1.74	1.52	1.30	1.16	1.14	1.15	1.16	1.18	1.22	1.29	1.38	1.48	1.58	1.76	2.06	2.40	2.55	2.55
1.48	1.53	1.55	1.45	1.38	1.41	1.48	1.51	1.49	1.48	1.50	1.59	1.72	1.79	1.78	1.76	1.75	1.72	1.67	1.66	1.73	1.83	1.95	2.12	2.34	2.43	2.10	1.62	1.55	1.79	1.99	2.06	1.99	1.82	1.61	1.40	1.23	1.15	1.18	1.26	1.34	1.44	1.71	2.18	2.67	2.75	2.23	1.67	1.40	1.25	1.15	1.08	0.99	0.88	0.87	0.96	1.10	1.19	1.25	1.36	1.49	1.56	1.62	1.77	1.90	1.95	2.04	2.17	2.32	2.44	2.51	2.48	2.03	2.04	2.26	2.04	1.91	1.85	1.93	2.10	2.20	2.14	1.92	1.60	1.30	1.13	1.14	1.27	1.39	1.43	1.43	1.44	1.47	1.48	1.49	1.47	1.44	1.46	1.57	1.71	1.84	1.94	2.01	2.14	2.49	2.76	2.51	2.05	1.81	1.59	1.37	1.27	1.25	1.26	1.26	1.28	1.32	1.40	1.46	1.56	1.75	2.05	2.39	2.54	2.54
1.36	1.41	1.45	1.37	1.26	1.26	1.40	1.49	1.50	1.49	1.50	1.58	1.69	1.74	1.75	1.77	1.77	1.73	1.68	1.67	1.73	1.81	1.91	2.07	2.32	2.48	2.22	1.63	1.39	1.54	1.68	1.82	1.89	1.83	1.66	1.46	1.30	1.21	1.20	1.26	1.35	1.43	1.67	2.19	2.73	2.82	2.29	1.67	1.38	1.25	1.15	1.10	1.04	0.93	0.87	0.91	1.02	1.10	1.15	1.27	1.40	1.46	1.53	1.69	1.83	1.90	1.97	2.10	2.20	2.26	2.31	2.34	2.24	2.05	1.95	1.96	1.92	1.86	1.82	1.89	2.05	2.22	2.26	2.10	1.74	1.39	1.16	1.11	1.19	1.33	1.41	1.45	1.48	1.49	1.50	1.52	1.54	1.53	1.54	1.59	1.66	1.75	1.83	1.98	2.36	2.70	2.70	2.43	2.16	1.87	1.62	1.46	1.39	1.37	1.34	1.33	1.35	1.41	1.46	1.55	1.75	2.09	2.42	2.56	2.56
1.31	1.33	1.37	1.35	1.27	1.25	1.36	1.47	1.49	1.46	1.48	1.54	1.64	1.68	1.73	1.79	1.78	1.71	1.65	1.66	1.72	1.79	1.89	2.04	2.31	2.55	2.38	1.71	1.24	1.29	1.36	1.46	1.63	1.72	1.64	1.45	1.31	1.28	1.29	1.34	1.43	1.51	1.71	2.18	2.71	2.85	2.48	1.87	1.47	1.31	1.22	1.17	1.12	1.02	0.90	0.89	0.98	1.09	1.18	1.25	1.33	1.38	1.44	1.61	1.74	1.78	1.82	1.92	2.02	2.07	2.15	2.28	2.19	1.83	1.71	1.85	1.97	1.96	1.82	1.63	1.63	1.92	2.20	2.31	2.11	1.71	1.37	1.18	1.16	1.26	1.37	1.42	1.46	1.49	1.50	1.51	1.54	1.57	1.57	1.56	1.60	1.68	1.75	1.89	2.22	2.53	2.56	2.49	2.37	2.14	1.82	1.54	1.42	1.39	1.36	1.32	1.31	1.35	1.42	1.52	1.73	2.10	2.43	2.55	2.55
1.29	1.28	1.29	1.33	1.33	1.31	1.35	1.44	1.49	1.47	1.46	1.48	1.60	1.66	1.74	1.80	1.79	1.68	1.57	1.57	1.64	1.74	1.86	1.99	2.26	2.61	2.58	1.85	1.22	1.15	1.15	1.15	1.26	1.46	1.52	1.40	1.31	1.35	1.40	1.47	1.55	1.64	1.78	2.12	2.59	2.83	2.68	2.16	1.66	1.39	1.25	1.16	1.10	0.99	0.89	0.91	1.02	1.20	1.33	1.37	1.39	1.42	1.47	1.58	1.65	1.68	1.70	1.75	1.85	1.97	2.15	2.35	2.24	1.74	1.54	1.70	1.91	2.02	1.91	1.64	1.40	1.51	1.91	2.25	2.30	2.02	1.59	1.31	1.21	1.24	1.33	1.37	1.40	1.45	1.47	1.44	1.44	1.48	1.53	1.54	1.56	1.69	1.79	1.96	2.20	2.28	2.20	2.23	2.30	2.25	2.02	1.67	1.47	1.40	1.36	1.33	1.32	1.36	1.42	1.50	1.73	2.09	2.37	2.46	2.46
1.31	1.25	1.20	1.25	1.32	1.36	1.39	1.45	1.50	1.50	1.47	1.48	1.56	1.66	1.71	1.76	1.80	1.71	1.54	1.50	1.58	1.68	1.78	1.93	2.18	2.61	2.75	2.22	1.41	1.18	1.13	1.05	1.01	1.12	1.28	1.28	1.25	1.32	1.42	1.51	1.60	1.69	1.81	2.05	2.42	2.76	2.82	2.44	1.87	1.48	1.28	1.17	1.09	1.00	0.93	0.94	1.02	1.20	1.38	1.46	1.49	1.51	1.55	1.57	1.60	1.62	1.62	1.67	1.78	1.92	2.18	2.42	2.16	1.76	1.46	1.57	1.80	1.96	1.95	1.84	1.50	1.31	1.55	2.02	2.29	2.22	1.83	1.45	1.27	1.25	1.30	1.33	1.33	1.35	1.35	1.33	1.33	1.41	1.49	1.49	1.51	1.69	1.87	2.11	2.28	2.10	1.85	1.84	1.97	2.08	2.05	1.83	1.58	1.45	1.40	1.41	1.44	1.52	1.60	1.66	1.82	2.11	2.28	2.30	2.30
1.35	1.26	1.18	1.19	1.26	1.35	1.41	1.45	1.48	1.48	1.47	1.51	1.61	1.68	1.69	1.72	1.80	1.77	1.60	1.50	1.55	1.63	1.72	1.87	2.14	2.50	2.80	2.58	1.87	1.46	1.33	1.20	1.01	0.93	1.01	1.10	1.14	1.22	1.34	1.47	1.57	1.65	1.76	1.95	2.25	2.64	2.85	2.64	2.08	1.61	1.39	1.29	1.20	1.08	0.97	0.96	1.00	1.13	1.31	1.44	1.51	1.53	1.57	1.59	1.61	1.59	1.54	1.59	1.73	1.89	2.21	2.50	2.35	1.75	1.33	1.38	1.63	1.80	1.90	1.90	1.70	1.35	1.27	1.69	2.11	2.24	2.04	1.67	1.38	1.29	1.30	1.29	1.23	1.19	1.18	1.18	1.22	1.34	1.45	1.44	1.44	1.66	1.92	2.23	2.35	2.04	1.71	1.59	1.58	1.68	1.81	1.79	1.64	1.49	1.42	1.42	1.48	1.62	1.80	1.89	2.01	2.19	2.23	2.15	2.15
1.36	1.28	1.19	1.19	1.24	1.31	1.38	1.42	1.45	1.46	1.47	1.54	1.64	1.68	1.68	1.69	1.76	1.79	1.69	1.57	1.57	1.62	1.68	1.83	2.05	2.33	2.67	2.70	2.34	1.98	1.79	1.56	1.28	1.04	0.93	0.97	1.08	1.19	1.29	1.39	1.49	1.57	1.69	1.88	2.13	2.50	2.82	2.78	2.35	1.89	1.60	1.43	1.30	1.15	1.00	0.97	1.01	1.11	1.26	1.39	1.48	1.53	1.58	1.66	1.71	1.58	1.41	1.48	1.65	1.86	2.24	2.56	2.44	1.72	1.19	1.16	1.37	1.56	1.68	1.77	1.76	1.52	1.20	1.35	1.82	2.07	2.06	1.87	1.59	1.41	1.33	1.27	1.17	1.09	1.09	1.13	1.18	1.28	1.39	1.41	1.40	1.60	1.89	2.25	2.37	2.10	1.79	1.65	1.52	1.46	1.50	1.58	1.56	1.46	1.36	1.34	1.38	1.50	1.73	1.94	2.10	2.27	2.22	2.07	2.07
1.36	1.27	1.19	1.21	1.24	1.29	1.34	1.39	1.43	1.46	1.50	1.58	1.65	1.67	1.67	1.68	1.74	1.79	1.73	1.63	1.60	1.62	1.67	1.81	1.99	2.17	2.44	2.60	2.45	2.21	2.11	1.97	1.67	1.32	1.05	0.97	1.07	1.20	1.26	1.33	1.43	1.52	1.64	1.82	2.05	2.37	2.68	2.75	2.48	2.12	1.83	1.59	1.42	1.24	1.05	0.98	1.01	1.09	1.20	1.30	1.39	1.47	1.55	1.72	1.82	1.60	1.29	1.34	1.54	1.80	2.23	2.79	2.64	1.94	1.30	1.16	1.21	1.31	1.41	1.49	1.61	1.56	1.27	1.18	1.50	1.79	1.88	1.85	1.70	1.52	1.39	1.31	1.21	1.15	1.16	1.20	1.27	1.36	1.44	1.48	1.51	1.64	1.84	2.18	2.38	2.17	1.87	1.72	1.62	1.51	1.44	1.45	1.48	1.43	1.37	1.34	1.34	1.41	1.60	1.85	2.12	2.31	2.22	2.06	2.06
1.36	1.27	1.19	1.21	1.25	1.29	1.33	1.36	1.41	1.46	1.52	1.59	1.64	1.65	1.65	1.68	1.74	1.79	1.77	1.68	1.61	1.60	1.67	1.78	1.92	2.05	2.25	2.44	2.35	2.12	2.06	2.08	1.96	1.63	1.24	1.02	1.02	1.13	1.22	1.31	1.39	1.47	1.55	1.71	1.95	2.26	2.62	2.62	2.38	2.10	1.92	1.74	1.58	1.40	1.15	1.00	0.97	1.01	1.09	1.19	1.30	1.41	1.52	1.73	1.89	1.68	1.25	1.21	1.43	1.72	2.11	2.58	2.76	2.44	1.79	1.45	1.32	1.29	1.28	1.26	1.32	1.41	1.28	1.12	1.22	1.44	1.57	1.61	1.59	1.51	1.42	1.35	1.29	1.27	1.28	1.32	1.38	1.49	1.61	1.68	1.71	1.75	1.86	2.10	2.32	2.28	2.05	1.76	1.59	1.50	1.44	1.44	1.49	1.50	1.47	1.47	1.47	1.49	1.60	1.83	2.15	2.33	2.19	2.00	2.00
1.36	1.28	1.20	1.19	1.23	1.28	1.34	1.38	1.41	1.47	1.52	1.58	1.64	1.65	1.63	1.66	1.74	1.82	1.84	1.78	1.68	1.62	1.65	1.73	1.85	1.98	2.17	2.34	2.28	1.99	1.82	1.91	2.00	1.88	1.50	1.13	0.99	1.01	1.17	1.32	1.38	1.43	1.48	1.60	1.89	2.28	2.56	2.52	2.16	1.89	1.76	1.66	1.58	1.48	1.26	1.04	0.96	0.96	1.04	1.16	1.27	1.39	1.52	1.73	1.93	1.77	1.31	1.16	1.35	1.64	1.95	2.35	2.66	2.66	2.38	2.05	1.80	1.64	1.51	1.35	1.27	1.31	1.27	1.15	1.10	1.15	1.24	1.34	1.39	1.40	1.40	1.37	1.33	1.32	1.35	1.37	1.40	1.50	1.65	1.75	1.79	1.83	1.89	1.99	2.16	2.27	2.24	2.01	1.66	1.47	1.40	1.43	1.49	1.51	1.50	1.50	1.51	1.53	1.63	1.86	2.21	2.40	2.15	1.88	1.88
1.35	1.29	1.20	1.17	1.19	1.28	1.36	1.41	1.45	1.49	1.51	1.55	1.62	1.65	1.62	1.64	1.76	1.88	1.91	1.90	1.82	1.73	1.68	1.71	1.81	1.96	2.14	2.29	2.28	2.02	1.72	1.65	1.82	1.91	1.72	1.31	1.05	1.01	1.13	1.31	1.42	1.47	1.50	1.62	1.93	2.39	2.68	2.46	1.91	1.57	1.46	1.36	1.33	1.33	1.20	1.03	0.96	0.96	1.05	1.17	1.28	1.38	1.53	1.74	1.95	1.86	1.40	1.13	1.27	1.56	1.84	2.17	2.48	2.56	2.47	2.27	2.27	2.16	2.02	1.82	1.62	1.52	1.50	1.39	1.21	1.10	1.10	1.18	1.27	1.32	1.36	1.37	1.34	1.33	1.35	1.38	1.41	1.46	1.55	1.67	1.79	1.91	1.91	1.82	1.91	2.08	2.19	2.18	1.97	1.65	1.46	1.41	1.39	1.34	1.29	1.29	1.35	1.44	1.60	1.85	2.23	2.46	2.20	1.87	1.87
1.33	1.29	1.22	1.19	1.22	1.30	1.38	1.43	1.48	1.52	1.51	1.50	1.57	1.61	1.58	1.59	1.68	1.80	1.88	1.93	1.92	1.86	1.78	1.74	1.82	1.96	2.09	2.20	2.21	2.05	1.77	1.54	1.54	1.75	1.75	1.47	1.17	1.08	1.13	1.31	1.47	1.54	1.56	1.69	2.02	2.51	2.79	2.44	1.76	1.41	1.26	1.14	1.09	1.08	1.02	0.95	0.94	0.97	1.04	1.15	1.25	1.36	1.53	1.74	1.96	1.92	1.45	1.09	1.18	1.49	1.79	2.13	2.34	2.29	2.16	2.19	2.26	2.28	2.27	2.22	2.12	1.97	1.86	1.75	1.56	1.37	1.25	1.22	1.25	1.31	1.35	1.36	1.36	1.36	1.37	1.40	1.43	1.44	1.50	1.65	1.91	2.05	1.85	1.57	1.60	1.77	1.92	2.08	2.09	1.86	1.58	1.44	1.36	1.29	1.19	1.13	1.17	1.31	1.52	1.80	2.18	2.45	2.24	1.94	1.94
1.30	1.27	1.22	1.21	1.23	1.30	1.37	1.44	1.50	1.53	1.50	1.46	1.48	1.52	1.48	1.43	1.47	1.57	1.71	1.81	1.88	1.91	1.87	1.82	1.86	1.98	2.07	2.14	2.09	1.92	1.73	1.48	1.35	1.51	1.65	1.52	1.25	1.14	1.16	1.30	1.46	1.54	1.57	1.73	2.05	2.54	2.83	2.57	1.94	1.53	1.30	1.18	1.14	1.12	1.06	0.98	0.95	0.96	1.01	1.09	1.19	1.31	1.52	1.76	1.99	1.96	1.48	1.05	1.09	1.39	1.76	2.15	2.30	2.04	1.73	1.71	1.92	2.07	2.13	2.18	2.21	2.15	2.06	1.99	1.90	1.77	1.63	1.48	1.39	1.37	1.37	1.36	1.37	1.38	1.37	1.38	1.41	1.43	1.51	1.74	2.11	2.21	1.75	1.34	1.32	1.47	1.62	1.82	1.98	1.91	1.66	1.48	1.43	1.42	1.38	1.28	1.20	1.23	1.42	1.73	2.12	2.39	2.23	1.95	1.95
1.29	1.25	1.21	1.19	1.20	1.26	1.35	1.45	1.51	1.52	1.49	1.46	1.46	1.48	1.45	1.37	1.34	1.39	1.50	1.64	1.77	1.87	1.90	1.87	1.91	2.04	2.15	2.17	2.03	1.77	1.58	1.38	1.21	1.25	1.44	1.46	1.28	1.17	1.15	1.24	1.38	1.48	1.55	1.72	1.99	2.45	2.80	2.71	2.28	1.90	1.61	1.42	1.33	1.30	1.23	1.08	0.98	0.95	0.96	1.02	1.12	1.26	1.48	1.79	2.05	2.02	1.50	1.02	0.99	1.27	1.72	2.19	2.34	1.93	1.39	1.31	1.59	1.79	1.82	1.85	1.98	2.05	1.99	1.94	1.93	1.90	1.85	1.75	1.58	1.47	1.41	1.35	1.31	1.31	1.30	1.32	1.36	1.41	1.50	1.76	2.22	2.35	1.90	1.34	1.17	1.22	1.35	1.57	1.78	1.82	1.67	1.48	1.40	1.43	1.49	1.50	1.44	1.36	1.40	1.66	2.04	2.31	2.18	1.93	1.93
1.29	1.25	1.19	1.17	1.17	1.22	1.33	1.46	1.51	1.51	1.49	1.48	1.50	1.53	1.53	1.48	1.39	1.34	1.38	1.50	1.67	1.80	1.85	1.85	1.92	2.09	2.26	2.27	2.10	1.81	1.56	1.38	1.20	1.09	1.18	1.30	1.26	1.19	1.15	1.21	1.32	1.43	1.53	1.69	1.88	2.28	2.69	2.77	2.47	2.15	1.93	1.70	1.47	1.34	1.24	1.11	0.99	0.94	0.93	0.99	1.06	1.18	1.43	1.82	2.12	2.08	1.57	1.03	0.92	1.16	1.65	2.21	2.43	2.02	1.30	1.08	1.36	1.60	1.57	1.53	1.67	1.85	1.81	1.67	1.66	1.66	1.72	1.74	1.65	1.53	1.43	1.33	1.25	1.23	1.27	1.33	1.36	1.40	1.47	1.66	2.12	2.40	2.24	1.73	1.33	1.18	1.22	1.41	1.63	1.72	1.65	1.48	1.33	1.30	1.39	1.53	1.62	1.60	1.56	1.70	1.98	2.21	2.14	1.95	1.95
1.30	1.25	1.17	1.14	1.14	1.19	1.32	1.46	1.51	1.50	1.48	1.48	1.50	1.55	1.62	1.62	1.54	1.42	1.40	1.48	1.62	1.75	1.80	1.83	1.90	2.08	2.27	2.32	2.21	2.00	1.76	1.57	1.40	1.22	1.12	1.17	1.22	1.22	1.22	1.25	1.32	1.41	1.53	1.67	1.81	2.12	2.55	2.75	2.53	2.20	2.01	1.86	1.62	1.39	1.22	1.11	1.02	0.97	0.97	1.01	1.07	1.13	1.38	1.79	2.12	2.12	1.69	1.14	0.94	1.11	1.56	2.18	2.48	2.17	1.44	1.04	1.16	1.40	1.38	1.30	1.42	1.65	1.65	1.46	1.37	1.36	1.42	1.51	1.54	1.50	1.42	1.32	1.24	1.23	1.31	1.39	1.42	1.46	1.51	1.61	1.92	2.27	2.36	2.15	1.74	1.35	1.25	1.37	1.57	1.70	1.70	1.57	1.38	1.26	1.31	1.46	1.65	1.75	1.78	1.84	1.99	2.12	2.06	1.95	1.95
1.33	1.26	1.16	1.11	1.12	1.19	1.29	1.42	1.48	1.46	1.43	1.43	1.47	1.53	1.62	1.70	1.67	1.58	1.54	1.57	1.65	1.75	1.81	1.86	1.95	2.09	2.22	2.24	2.18	2.05	1.87	1.70	1.53	1.33	1.14	1.12	1.19	1.24	1.29	1.32	1.36	1.42	1.51	1.64	1.79	2.03	2.41	2.66	2.55	2.21	1.98	1.87	1.75	1.60	1.41	1.23	1.11	1.05	1.05	1.11	1.16	1.21	1.37	1.73	2.06	2.13	1.76	1.24	0.99	1.10	1.52	2.13	2.50	2.32	1.64	1.15	1.11	1.24	1.26	1.19	1.24	1.42	1.49	1.37	1.26	1.24	1.26	1.31	1.37	1.40	1.38	1.32	1.26	1.27	1.34	1.40	1.45	1.52	1.60	1.71	1.84	2.00	2.20	2.25	2.02	1.58	1.37	1.41	1.58	1.74	1.81	1.77	1.57	1.34	1.28	1.38	1.57	1.75	1.87	1.97	2.09	2.09	1.93	1.82	1.82
1.36	1.29	1.18	1.14	1.17	1.23	1.30	1.38	1.44	1.42	1.36	1.37	1.45	1.56	1.65	1.74	1.75	1.73	1.71	1.71	1.73	1.78	1.81	1.88	2.00	2.17	2.24	2.14	2.01	1.92	1.79	1.63	1.46	1.23	1.09	1.10	1.17	1.25	1.31	1.34	1.38	1.42	1.48	1.60	1.79	1.99	2.30	2.56	2.51	2.20	1.97	1.84	1.75	1.67	1.55	1.36	1.20	1.12	1.10	1.15	1.23	1.31	1.43	1.68	2.02	2.16	1.81	1.26	1.00	1.10	1.49	2.06	2.53	2.53	1.92	1.42	1.23	1.21	1.25	1.21	1.16	1.22	1.32	1.30	1.22	1.19	1.22	1.26	1.30	1.32	1.33	1.30	1.27	1.27	1.31	1.36	1.40	1.49	1.65	1.85	1.87	1.74	1.88	2.12	2.10	1.78	1.50	1.47	1.57	1.68	1.81	1.91	1.84	1.54	1.29	1.27	1.42	1.63	1.83	2.04	2.20	2.14	1.82	1.62	1.62
1.41	1.33	1.24	1.22	1.27	1.34	1.38	1.43	1.47	1.43	1.34	1.32	1.41	1.58	1.68	1.73	1.75	1.74	1.72	1.72	1.75	1.79	1.79	1.84	2.00	2.27	2.37	2.17	1.92	1.85	1.77	1.61	1.41	1.17	1.04	1.06	1.14	1.23	1.29	1.33	1.37	1.44	1.50	1.60	1.78	1.98	2.27	2.52	2.41	2.03	1.82	1.74	1.65	1.57	1.48	1.36	1.23	1.13	1.10	1.12	1.21	1.34	1.49	1.67	1.99	2.19	1.95	1.37	1.02	1.05	1.40	1.94	2.52	2.74	2.36	1.84	1.47	1.30	1.34	1.32	1.19	1.15	1.21	1.25	1.19	1.14	1.20	1.27	1.30	1.31	1.30	1.28	1.27	1.27	1.32	1.38	1.43	1.50	1.66	1.94	1.97	1.67	1.58	1.82	2.01	1.90	1.62	1.49	1.48	1.50	1.62	1.87	2.01	1.84	1.52	1.36	1.42	1.57	1.77	2.03	2.27	2.27	1.86	1.59	1.59
1.45	1.38	1.29	1.28	1.36	1.44	1.48	1.51	1.55	1.54	1.43	1.34	1.37	1.52	1.65	1.68	1.69	1.69	1.69	1.68	1.71	1.76	1.76	1.78	1.90	2.24	2.44	2.29	2.03	1.96	1.93	1.81	1.58	1.29	1.10	1.04	1.09	1.17	1.24	1.29	1.36	1.45	1.55	1.64	1.81	2.02	2.32	2.55	2.33	1.83	1.58	1.51	1.46	1.38	1.32	1.26	1.19	1.13	1.10	1.13	1.22	1.35	1.51	1.66	1.92	2.17	2.03	1.51	1.06	0.97	1.25	1.73	2.33	2.75	2.72	2.30	1.81	1.49	1.49	1.45	1.30	1.21	1.23	1.28	1.22	1.15	1.19	1.27	1.31	1.32	1.30	1.28	1.26	1.27	1.34	1.43	1.51	1.58	1.70	1.95	2.06	1.82	1.51	1.49	1.71	1.80	1.68	1.53	1.45	1.41	1.45	1.68	1.95	2.01	1.84	1.65	1.60	1.64	1.76	1.98	2.27	2.39	2.09	1.80	1.80
1.48	1.40	1.29	1.29	1.37	1.48	1.56	1.59	1.64	1.67	1.62	1.51	1.45	1.50	1.57	1.63	1.66	1.70	1.71	1.70	1.73	1.75	1.74	1.75	1.83	2.14	2.36	2.29	2.10	2.04	2.04	2.01	1.84	1.50	1.20	1.06	1.05	1.11	1.19	1.27	1.36	1.47	1.57	1.68	1.85	2.06	2.38	2.63	2.36	1.84	1.56	1.38	1.20	1.15	1.15	1.14	1.15	1.14	1.13	1.15	1.25	1.39	1.53	1.68	1.91	2.14	2.03	1.58	1.11	0.92	1.06	1.44	2.00	2.52	2.77	2.71	2.33	1.93	1.81	1.68	1.54	1.44	1.43	1.43	1.32	1.20	1.21	1.27	1.30	1.32	1.30	1.26	1.22	1.22	1.27	1.37	1.50	1.63	1.76	1.91	2.02	2.00	1.76	1.45	1.44	1.58	1.62	1.58	1.53	1.48	1.42	1.48	1.69	1.90	1.90	1.80	1.72	1.73	1.79	1.91	2.16	2.38	2.29	2.13	2.13
1.52	1.43	1.29	1.26	1.34	1.48	1.60	1.66	1.70	1.75	1.76	1.69	1.58	1.52	1.54	1.60	1.67	1.72	1.72	1.70	1.75	1.79	1.79	1.80	1.88	2.11	2.23	2.10	1.94	1.91	1.94	2.00	1.95	1.67	1.30	1.09	1.03	1.05	1.14	1.26	1.37	1.50	1.60	1.70	1.87	2.08	2.39	2.65	2.48	2.12	1.86	1.58	1.27	1.14	1.11	1.11	1.14	1.17	1.18	1.22	1.30	1.46	1.60	1.73	1.94	2.15	2.08	1.67	1.22	0.95	0.95	1.22	1.66	2.13	2.54	2.76	2.71	2.45	2.19	2.01	1.89	1.77	1.68	1.59	1.41	1.24	1.22	1.26	1.30	1.32	1.30	1.26	1.20	1.16	1.20	1.31	1.47	1.64	1.81	1.88	1.85	1.94	1.96	1.72	1.48	1.46	1.54	1.58	1.60	1.60	1.56	1.52	1.57	1.69	1.77	1.72	1.71	1.75	1.80	1.86	2.03	2.29	2.35	2.31	2.31
1.56	1.45	1.28	1.21	1.25	1.38	1.51	1.60	1.65	1.70	1.72	1.70	1.62	1.56	1.56	1.59	1.65	1.70	1.70	1.66	1.72	1.78	1.82	1.86	1.99	2.16	2.15	1.92	1.74	1.70	1.74	1.84	1.89	1.75	1.40	1.13	1.02	1.02	1.10	1.24	1.38	1.52	1.62	1.71	1.87	2.10	2.39	2.58	2.45	2.25	2.13	1.96	1.68	1.38	1.20	1.13	1.14	1.18	1.22	1.28	1.38	1.53	1.67	1.79	1.96	2.19	2.20	1.87	1.44	1.10	0.97	1.09	1.42	1.78	2.17	2.50	2.62	2.54	2.39	2.24	2.09	1.94	1.81	1.67	1.46	1.26	1.21	1.24	1.28	1.32	1.32	1.29	1.24	1.19	1.21	1.30	1.47	1.65	1.84	1.89	1.72	1.68	1.88	1.86	1.64	1.50	1.51	1.56	1.62	1.66	1.69	1.66	1.62	1.66	1.70	1.64	1.66	1.74	1.81	1.86	1.98	2.21	2.36	2.39	2.39
1.59	1.48	1.29	1.17	1.14	1.20	1.31	1.41	1.49	1.55	1.60	1.62	1.62	1.60	1.58	1.59	1.63	1.69	1.69	1.65	1.68	1.76	1.82	1.89	2.09	2.24	2.13	1.84	1.62	1.53	1.56	1.64	1.73	1.67	1.43	1.17	1.04	1.04	1.13	1.25	1.38	1.50	1.60	1.71	1.86	2.13	2.43	2.50	2.29	2.11	2.08	2.06	1.94	1.67	1.31	1.12	1.11	1.14	1.19	1.29	1.42	1.58	1.70	1.82	1.96	2.16	2.26	2.05	1.64	1.23	0.99	1.03	1.27	1.58	1.91	2.20	2.37	2.39	2.34	2.27	2.15	2.02	1.89	1.74	1.51	1.30	1.22	1.22	1.26	1.30	1.32	1.32	1.30	1.29	1.29	1.35	1.48	1.66	1.85	1.92	1.74	1.57	1.71	1.79	1.66	1.52	1.49	1.50	1.52	1.55	1.61	1.64	1.66	1.73	1.75	1.66	1.64	1.72	1.80	1.87	1.99	2.16	2.34	2.42	2.42
1.62	1.52	1.33	1.20	1.11	1.08	1.15	1.25	1.34	1.42	1.50	1.58	1.62	1.60	1.57	1.56	1.62	1.70	1.72	1.72	1.74	1.80	1.86	1.96	2.20	2.37	2.15	1.78	1.55	1.44	1.41	1.44	1.47	1.45	1.30	1.11	1.03	1.06	1.14	1.24	1.34	1.45	1.56	1.68	1.85	2.16	2.48	2.50	2.20	1.94	1.87	1.87	1.91	1.78	1.39	1.11	1.06	1.08	1.13	1.24	1.40	1.57	1.69	1.81	1.92	2.10	2.27	2.15	1.72	1.25	0.98	0.96	1.15	1.44	1.76	2.07	2.28	2.28	2.15	2.12	2.12	2.10	2.04	1.91	1.72	1.50	1.34	1.29	1.29	1.31	1.32	1.33	1.35	1.39	1.41	1.44	1.52	1.67	1.85	1.90	1.75	1.59	1.61	1.68	1.60	1.50	1.44	1.41	1.40	1.40	1.44	1.51	1.58	1.73	1.80	1.73	1.68	1.70	1.77	1.89	2.00	2.13	2.31	2.43	2.43
1.61	1.55	1.43	1.31	1.19	1.11	1.12	1.20	1.28	1.35	1.44	1.55	1.61	1.60	1.53	1.46	1.52	1.64	1.71	1.74	1.79	1.86	1.92	2.01	2.27	2.49	2.32	1.88	1.62	1.48	1.38	1.32	1.31	1.25	1.11	0.99	0.95	0.98	1.05	1.14	1.25	1.38	1.51	1.65	1.84	2.16	2.50	2.54	2.21	1.90	1.75	1.65	1.67	1.69	1.45	1.13	1.02	1.00	1.04	1.14	1.31	1.50	1.65	1.78	1.90	2.08	2.29	2.24	1.82	1.32	0.99	0.90	1.03	1.30	1.60	2.00	2.30	2.30	2.03	1.88	1.93	2.00	2.04	2.02	1.94	1.78	1.57	1.43	1.36	1.34	1.34	1.34	1.35	1.41	1.47	1.53	1.59	1.72	1.87	1.86	1.67	1.54	1.56	1.60	1.55	1.47	1.40	1.34	1.34	1.33	1.36	1.42	1.48	1.61	1.73	1.74	1.71	1.71	1.75	1.87	2.00	2.13	2.29	2.38	2.38
1.58	1.55	1.50	1.43	1.32	1.21	1.17	1.21	1.27	1.32	1.40	1.52	1.61	1.61	1.51	1.32	1.26	1.40	1.55	1.66	1.76	1.86	1.95	2.00	2.20	2.49	2.52	2.23	1.94	1.76	1.61	1.47	1.39	1.29	1.14	1.00	0.92	0.92	0.98	1.09	1.21	1.34	1.49	1.64	1.82	2.15	2.51	2.61	2.35	2.03	1.81	1.58	1.47	1.49	1.34	1.09	0.95	0.93	0.96	1.04	1.21	1.41	1.59	1.74	1.87	2.05	2.29	2.34	2.03	1.51	1.10	0.90	0.94	1.15	1.47	1.92	2.31	2.41	2.11	1.75	1.65	1.71	1.78	1.84	1.87	1.82	1.68	1.54	1.44	1.38	1.36	1.35	1.36	1.40	1.47	1.56	1.65	1.78	1.94	1.90	1.62	1.45	1.46	1.53	1.52	1.48	1.40	1.31	1.29	1.32	1.36	1.38	1.40	1.49	1.59	1.65	1.71	1.75	1.77	1.85	2.01	2.17	2.26	2.25	2.25
1.53	1.51	1.49	1.45	1.38	1.28	1.22	1.22	1.27	1.33	1.40	1.49	1.57	1.61	1.55	1.34	1.12	1.12	1.28	1.47	1.63	1.76	1.90	1.99	2.47	2.31	2.49	2.45	2.29	2.12	1.97	1.83	1.71	1.55	1.35	1.14	0.98	0.94	0.98	1.09	1.23	1.37	1.52	1.65	1.80	2.11	2.48	2.65	2.53	2.26	2.00	1.73	1.49	1.39	1.22	1.00	0.88	0.87	0.91	0.98	1.12	1.33	1.54	1.69	1.82	1.98	2.21	2.39	2.25	1.75	1.27	1.00	0.94	1.04	1.33	1.77	2.24	2.48	2.32	1.89	1.57	1.49	1.50	1.52	1.57	1.60	1.57	1.52	1.46	1.41	1.38	1.38	1.41	1.45	1.50	1.59	1.69	1.82	1.98	1.98	1.74	1.49	1.43	1.48	1.51	1.51	1.46	1.36	1.29	1.31	1.36	1.37	1.39	1.45	1.49	1.54	1.67	1.79	1.81	1.84	2.02	2.22	2.25	2.17	2.17
1.49	1.46	1.42	1.40	1.37	1.32	1.26	1.23	1.27	1.36	1.44	1.51	1.56	1.62	1.67	1.55	1.29	1.14	1.18	1.34	1.51	1.64	1.81	2.00	2.06	2.11	2.25	2.34	2.31	2.24	2.15	2.04	1.93	1.76	1.53	1.28	1.07	0.98	0.98	1.07	1.23	1.41	1.55	1.66	1.79	2.03	2.36	2.57	2.60	2.45	2.19	1.93	1.71	1.50	1.26	1.02	0.86	0.83	0.86	0.92	1.03	1.23	1.47	1.64	1.76	1.91	2.09	2.33	2.38	2.05	1.53	1.17	1.02	1.02	1.19	1.57	2.08	2.43	2.48	2.16	1.72	1.55	1.50	1.42	1.38	1.38	1.39	1.43	1.43	1.40	1.38	1.38	1.41	1.46	1.52	1.61	1.72	1.84	1.96	1.99	1.84	1.61	1.48	1.47	1.50	1.56	1.59	1.53	1.42	1.38	1.39	1.39	1.42	1.49	1.52	1.51	1.62	1.77	1.85	1.88	2.03	2.22	2.23	2.16	2.16
1.50	1.44	1.37	1.37	1.37	1.37	1.35	1.34	1.34	1.39	1.51	1.61	1.67	1.76	1.84	1.82	1.71	1.56	1.45	1.48	1.56	1.63	1.78	1.99	2.05	1.99	2.07	2.17	2.14	2.09	2.07	2.03	1.96	1.83	1.65	1.41	1.17	1.02	0.99	1.04	1.19	1.37	1.55	1.68	1.80	1.97	2.21	2.41	2.56	2.57	2.39	2.19	2.00	1.73	1.41	1.12	0.89	0.79	0.79	0.86	0.97	1.14	1.37	1.56	1.71	1.83	1.97	2.18	2.36	2.28	1.83	1.36	1.14	1.08	1.17	1.45	1.91	2.32	2.51	2.35	1.98	1.80	1.75	1.59	1.41	1.32	1.30	1.34	1.38	1.36	1.34	1.33	1.34	1.39	1.48	1.59	1.72	1.84	1.92	1.93	1.81	1.65	1.55	1.50	1.51	1.58	1.68	1.71	1.66	1.59	1.54	1.50	1.48	1.52	1.54	1.52	1.56	1.71	1.85	1.94	2.05	2.16	2.17	2.13	2.13
1.55	1.46	1.36	1.36	1.39	1.43	1.48	1.51	1.49	1.48	1.58	1.70	1.80	1.88	1.94	1.93	1.91	1.88	1.82	1.76	1.75	1.75	1.83	1.99	2.01	1.94	2.04	2.16	2.05	1.90	1.89	1.88	1.82	1.75	1.63	1.47	1.27	1.11	1.04	1.05	1.15	1.31	1.51	1.69	1.85	1.98	2.10	2.22	2.41	2.56	2.55	2.44	2.29	1.98	1.57	1.23	0.97	0.80	0.76	0.82	0.93	1.07	1.27	1.48	1.66	1.77	1.83	2.00	2.24	2.30	2.01	1.56	1.29	1.20	1.22	1.41	1.80	2.19	2.45	2.42	2.12	1.90	1.86	1.78	1.58	1.39	1.28	1.30	1.33	1.31	1.29	1.30	1.31	1.36	1.44	1.55	1.69	1.84	1.94	1.87	1.69	1.57	1.54	1.51	1.50	1.56	1.67	1.73	1.75	1.74	1.69	1.61	1.53	1.48	1.48	1.47	1.50	1.64	1.81	1.94	2.06	2.12	2.09	2.06	2.06
1.59	1.49	1.38	1.37	1.40	1.44	1.52	1.59	1.60	1.58	1.60	1.67	1.75	1.81	1.87	1.87	1.80	1.80	1.84	1.84	1.82	1.82	1.88	2.01	2.00	1.93	2.05	2.22	2.12	1.92	1.84	1.79	1.70	1.62	1.52	1.40	1.28	1.17	1.10	1.07	1.14	1.28	1.47	1.67	1.87	2.00	2.04	2.06	2.19	2.39	2.49	2.53	2.51	2.28	1.84	1.46	1.17	0.93	0.82	0.82	0.90	1.02	1.19	1.42	1.64	1.75	1.77	1.87	2.08	2.20	2.05	1.68	1.41	1.29	1.28	1.42	1.74	2.08	2.37	2.43	2.17	1.89	1.81	1.79	1.68	1.47	1.31	1.29	1.30	1.26	1.24	1.26	1.32	1.39	1.46	1.54	1.66	1.85	1.99	1.85	1.55	1.44	1.47	1.48	1.48	1.53	1.60	1.63	1.65	1.67	1.67	1.63	1.55	1.47	1.44	1.45	1.47	1.59	1.76	1.90	2.04	2.09	2.02	1.96	1.96
1.60	1.53	1.42	1.38	1.39	1.42	1.49	1.54	1.58	1.58	1.55	1.55	1.58	1.64	1.74	1.76	1.66	1.62	1.66	1.74	1.80	1.83	1.91	2.01	1.99	1.95	2.06	2.21	2.18	2.06	1.99	1.89	1.79	1.68	1.52	1.35	1.23	1.18	1.14	1.12	1.17	1.30	1.47	1.67	1.86	1.99	1.99	1.91	1.96	2.13	2.26	2.41	2.56	2.47	2.15	1.80	1.48	1.16	0.95	0.87	0.90	1.00	1.16	1.39	1.63	1.76	1.78	1.84	2.00	2.09	1.98	1.73	1.50	1.34	1.31	1.43	1.68	1.98	2.30	2.45	2.25	1.94	1.78	1.74	1.71	1.54	1.35	1.32	1.31	1.26	1.21	1.21	1.27	1.37	1.46	1.53	1.64	1.85	2.03	1.90	1.52	1.36	1.40	1.45	1.48	1.52	1.55	1.57	1.57	1.57	1.59	1.59	1.57	1.54	1.52	1.51	1.52	1.60	1.72	1.85	2.01	2.07	1.96	1.87	1.87
1.58	1.53	1.43	1.37	1.36	1.40	1.46	1.49	1.49	1.48	1.47	1.47	1.49	1.55	1.66	1.69	1.61	1.56	1.59	1.68	1.80	1.85	1.91	1.96	1.97	2.00	2.12	2.19	2.13	2.07	2.04	1.97	1.89	1.80	1.66	1.44	1.24	1.17	1.17	1.19	1.24	1.35	1.49	1.66	1.83	1.96	1.94	1.79	1.78	1.92	2.05	2.23	2.43	2.44	2.28	2.05	1.74	1.42	1.15	0.98	0.94	1.01	1.14	1.35	1.60	1.77	1.82	1.88	1.99	2.02	1.90	1.73	1.54	1.38	1.34	1.43	1.61	1.87	2.20	2.45	2.34	2.01	1.78	1.70	1.70	1.61	1.43	1.36	1.35	1.30	1.24	1.21	1.23	1.30	1.40	1.49	1.61	1.82	2.03	1.94	1.57	1.33	1.33	1.41	1.47	1.50	1.54	1.58	1.57	1.55	1.56	1.57	1.59	1.60	1.60	1.59	1.58	1.62	1.72	1.83	1.99	2.05	1.90	1.77	1.77
1.54	1.49	1.40	1.33	1.30	1.35	1.41	1.43	1.40	1.38	1.39	1.42	1.46	1.52	1.61	1.66	1.61	1.56	1.57	1.66	1.80	1.87	1.86	1.85	1.88	2.01	2.18	2.26	2.14	2.03	1.97	1.87	1.77	1.74	1.68	1.52	1.30	1.19	1.20	1.25	1.31	1.39	1.50	1.65	1.80	1.94	1.91	1.70	1.66	1.80	1.95	2.13	2.31	2.31	2.19	2.05	1.83	1.57	1.32	1.12	1.02	1.03	1.14	1.33	1.54	1.72	1.83	1.92	2.00	1.96	1.82	1.70	1.54	1.40	1.37	1.43	1.55	1.76	2.09	2.41	2.40	2.04	1.75	1.64	1.62	1.59	1.49	1.41	1.38	1.33	1.29	1.27	1.26	1.30	1.36	1.44	1.57	1.79	2.00	1.96	1.63	1.34	1.27	1.31	1.41	1.47	1.53	1.59	1.59	1.56	1.56	1.59	1.61	1.63	1.65	1.65	1.64	1.67	1.73	1.83	1.98	2.03	1.84	1.68	1.68
1.54	1.47	1.36	1.28	1.23	1.24	1.30	1.34	1.34	1.33	1.34	1.36	1.40	1.47	1.56	1.63	1.62	1.59	1.58	1.65	1.82	1.92	1.81	1.64	1.72	1.94	2.17	2.30	2.27	2.16	2.07	1.87	1.65	1.56	1.55	1.47	1.31	1.22	1.21	1.27	1.34	1.43	1.54	1.68	1.79	1.89	1.85	1.64	1.57	1.74	1.94	2.14	2.30	2.23	2.00	1.85	1.73	1.57	1.38	1.22	1.10	1.08	1.16	1.32	1.50	1.67	1.83	1.95	2.02	1.94	1.77	1.65	1.51	1.40	1.38	1.45	1.55	1.71	2.00	2.38	2.43	2.05	1.69	1.55	1.48	1.45	1.44	1.41	1.38	1.34	1.32	1.32	1.33	1.35	1.41	1.48	1.57	1.75	1.95	1.95	1.69	1.41	1.28	1.28	1.36	1.45	1.52	1.62	1.65	1.61	1.59	1.64	1.69	1.72	1.72	1.73	1.70	1.68	1.70	1.81	1.98	2.02	1.81	1.64	1.64
1.58	1.49	1.36	1.26	1.17	1.14	1.21	1.29	1.31	1.32	1.33	1.32	1.33	1.39	1.48	1.56	1.60	1.60	1.59	1.64	1.84	1.99	1.79	1.48	1.55	1.80	2.04	2.24	2.30	2.26	2.24	2.12	1.84	1.56	1.42	1.33	1.23	1.19	1.20	1.26	1.35	1.45	1.58	1.76	1.86	1.83	1.72	1.56	1.49	1.67	1.93	2.17	2.36	2.30	1.98	1.69	1.54	1.44	1.32	1.22	1.15	1.13	1.21	1.35	1.49	1.64	1.83	2.00	2.04	1.94	1.78	1.64	1.50	1.40	1.39	1.46	1.56	1.70	1.97	2.38	2.47	2.06	1.69	1.49	1.36	1.31	1.33	1.36	1.36	1.33	1.33	1.34	1.36	1.40	1.48	1.56	1.62	1.75	1.91	1.91	1.70	1.48	1.35	1.33	1.38	1.46	1.56	1.66	1.72	1.71	1.69	1.73	1.78	1.81	1.82	1.81	1.75	1.65	1.61	1.73	1.97	2.03	1.80	1.64	1.64
1.62	1.53	1.40	1.29	1.17	1.10	1.16	1.27	1.32	1.35	1.37	1.35	1.33	1.35	1.41	1.48	1.55	1.58	1.57	1.62	1.83	2.06	1.85	1.39	1.35	1.59	1.85	2.10	2.22	2.20	2.20	2.23	2.15	1.85	1.51	1.28	1.16	1.16	1.20	1.27	1.35	1.45	1.58	1.82	1.98	1.86	1.62	1.45	1.40	1.56	1.85	2.14	2.38	2.43	2.20	1.81	1.52	1.36	1.22	1.14	1.12	1.13	1.19	1.33	1.49	1.63	1.82	2.02	2.07	1.94	1.77	1.64	1.51	1.42	1.40	1.46	1.56	1.71	1.98	2.41	2.53	2.14	1.76	1.52	1.34	1.26	1.25	1.29	1.32	1.31	1.31	1.33	1.35	1.40	1.48	1.60	1.68	1.77	1.90	1.87	1.66	1.49	1.41	1.39	1.41	1.47	1.56	1.65	1.71	1.72	1.73	1.76	1.82	1.87	1.90	1.91	1.84	1.63	1.46	1.56	1.88	2.03	1.86	1.70	1.70
1.63	1.57	1.45	1.34	1.22	1.13	1.16	1.26	1.34	1.42	1.48	1.48	1.43	1.42	1.43	1.46	1.51	1.57	1.56	1.58	1.79	2.11	2.05	1.52	1.24	1.33	1.62	1.94	2.14	2.12	2.01	2.07	2.20	2.13	1.82	1.49	1.26	1.19	1.21	1.26	1.33	1.42	1.56	1.84	2.06	2.00	1.65	1.36	1.31	1.47	1.73	2.03	2.30	2.45	2.40	2.13	1.80	1.53	1.28	1.11	1.08	1.09	1.13	1.25	1.44	1.62	1.81	2.03	2.11	1.96	1.74	1.59	1.49	1.42	1.42	1.46	1.55	1.70	1.98	2.43	2.61	2.29	1.91	1.70	1.50	1.33	1.24	1.26	1.29	1.29	1.29	1.30	1.31	1.36	1.45	1.59	1.70	1.80	1.90	1.83	1.61	1.47	1.43	1.42	1.43	1.45	1.49	1.53	1.57	1.59	1.60	1.64	1.73	1.85	1.98	2.05	1.94	1.66	1.41	1.39	1.69	1.96	1.91	1.79	1.79
1.62	1.57	1.47	1.38	1.28	1.20	1.19	1.25	1.33	1.43	1.53	1.56	1.54	1.53	1.52	1.49	1.50	1.53	1.55	1.55	1.69	2.04	2.20	1.91	1.37	1.18	1.36	1.76	2.11	2.13	1.85	1.76	1.97	2.11	2.02	1.74	1.42	1.23	1.18	1.22	1.29	1.40	1.54	1.79	2.05	2.12	1.85	1.38	1.21	1.37	1.62	1.87	2.12	2.32	2.41	2.29	2.06	1.83	1.55	1.26	1.13	1.11	1.11	1.18	1.35	1.57	1.76	2.00	2.14	2.01	1.74	1.55	1.43	1.39	1.41	1.47	1.55	1.68	1.94	2.34	2.60	2.46	2.10	1.91	1.75	1.49	1.29	1.27	1.28	1.26	1.27	1.28	1.27	1.31	1.41	1.57	1.70	1.81	1.91	1.81	1.57	1.44	1.41	1.42	1.43	1.45	1.47	1.46	1.44	1.42	1.41	1.47	1.62	1.83	2.04	2.15	2.02	1.74	1.49	1.36	1.51	1.80	1.89	1.87	1.87
1.62	1.57	1.48	1.40	1.32	1.26	1.24	1.26	1.31	1.37	1.46	1.51	1.51	1.51	1.52	1.52	1.50	1.49	1.52	1.53	1.59	1.85	2.16	2.16	1.74	1.27	1.22	1.57	2.06	2.21	1.88	1.56	1.60	1.86	1.96	1.81	1.49	1.26	1.18	1.21	1.29	1.39	1.53	1.72	1.94	2.14	2.07	1.57	1.20	1.24	1.50	1.73	1.92	2.12	2.28	2.26	2.10	1.94	1.77	1.50	1.26	1.18	1.16	1.17	1.31	1.52	1.70	1.94	2.13	2.06	1.80	1.57	1.41	1.36	1.39	1.46	1.54	1.66	1.88	2.22	2.50	2.48	2.21	1.99	1.87	1.65	1.39	1.32	1.29	1.25	1.26	1.27	1.25	1.26	1.35	1.53	1.69	1.83	1.93	1.82	1.54	1.40	1.38	1.40	1.41	1.43	1.45	1.45	1.43	1.37	1.30	1.33	1.54	1.80	2.05	2.20	2.06	1.77	1.54	1.39	1.41	1.61	1.80	1.86	1.86
1.64	1.58	1.48	1.40	1.33	1.29	1.27	1.28	1.32	1.35	1.39	1.42	1.43	1.45	1.50	1.54	1.53	1.51	1.50	1.48	1.52	1.71	2.00	2.18	1.96	1.46	1.21	1.44	1.95	2.26	2.12	1.69	1.45	1.54	1.75	1.74	1.50	1.28	1.21	1.24	1.32	1.41	1.54	1.67	1.80	2.03	2.18	1.89	1.35	1.20	1.39	1.60	1.76	1.95	2.16	2.21	2.07	1.90	1.77	1.62	1.41	1.28	1.23	1.23	1.33	1.51	1.68	1.89	2.08	2.07	1.87	1.65	1.47	1.36	1.36	1.42	1.49	1.61	1.82	2.14	2.42	2.43	2.18	1.97	1.84	1.67	1.47	1.38	1.33	1.26	1.25	1.27	1.25	1.23	1.30	1.49	1.69	1.83	1.94	1.85	1.54	1.37	1.36	1.39	1.43	1.48	1.50	1.51	1.52	1.47	1.34	1.28	1.45	1.73	2.01	2.21	2.12	1.79	1.55	1.41	1.39	1.49	1.67	1.77	1.77
1.68	1.60	1.48	1.40	1.33	1.29	1.28	1.30	1.34	1.37	1.37	1.38	1.40	1.44	1.51	1.55	1.56	1.54	1.52	1.49	1.52	1.66	1.91	2.12	2.01	1.54	1.21	1.34	1.80	2.18	2.27	2.01	1.60	1.43	1.52	1.59	1.47	1.28	1.22	1.25	1.33	1.44	1.56	1.64	1.69	1.89	2.17	2.13	1.64	1.26	1.30	1.48	1.62	1.79	2.03	2.16	2.09	1.89	1.71	1.58	1.47	1.36	1.31	1.32	1.40	1.54	1.69	1.89	2.06	2.04	1.86	1.69	1.53	1.40	1.36	1.38	1.44	1.55	1.78	2.10	2.40	2.42	2.18	1.96	1.79	1.62	1.46	1.40	1.36	1.29	1.26	1.26	1.25	1.22	1.26	1.43	1.65	1.82	1.95	1.88	1.56	1.34	1.32	1.38	1.46	1.58	1.67	1.69	1.71	1.70	1.59	1.44	1.48	1.68	1.96	2.20	2.17	1.89	1.64	1.49	1.43	1.49	1.62	1.69	1.69
1.73	1.63	1.48	1.38	1.32	1.28	1.26	1.30	1.37	1.40	1.38	1.38	1.40	1.46	1.53	1.56	1.57	1.57	1.55	1.55	1.58	1.70	1.92	2.12	2.04	1.63	1.23	1.25	1.62	2.01	2.24	2.21	1.90	1.58	1.47	1.47	1.40	1.26	1.17	1.21	1.31	1.45	1.59	1.62	1.61	1.76	2.10	2.23	1.91	1.41	1.27	1.36	1.48	1.62	1.85	2.07	2.11	1.96	1.72	1.53	1.44	1.39	1.36	1.39	1.46	1.55	1.68	1.88	2.07	2.04	1.84	1.67	1.56	1.44	1.39	1.40	1.43	1.54	1.77	2.08	2.38	2.44	2.22	1.99	1.82	1.63	1.44	1.37	1.36	1.32	1.27	1.26	1.25	1.21	1.22	1.35	1.55	1.77	1.96	1.95	1.65	1.34	1.28	1.32	1.41	1.58	1.73	1.81	1.85	1.90	1.89	1.79	1.71	1.77	1.98	2.20	2.18	1.94	1.73	1.57	1.49	1.52	1.60	1.64	1.64
1.79	1.67	1.47	1.36	1.29	1.25	1.22	1.24	1.36	1.43	1.42	1.40	1.40	1.45	1.52	1.57	1.59	1.59	1.56	1.57	1.62	1.73	1.95	2.15	2.11	1.72	1.28	1.18	1.45	1.85	2.14	2.24	2.08	1.79	1.58	1.48	1.38	1.25	1.15	1.17	1.28	1.43	1.58	1.59	1.54	1.67	2.01	2.25	2.10	1.61	1.31	1.26	1.32	1.45	1.65	1.89	2.05	2.01	1.78	1.54	1.43	1.40	1.38	1.39	1.44	1.51	1.63	1.85	2.06	2.07	1.88	1.68	1.55	1.47	1.43	1.43	1.46	1.54	1.74	2.07	2.37	2.45	2.23	1.95	1.81	1.67	1.48	1.36	1.34	1.33	1.29	1.26	1.25	1.21	1.20	1.29	1.45	1.65	1.89	2.00	1.78	1.41	1.25	1.26	1.32	1.45	1.60	1.70	1.77	1.84	1.94	1.97	1.92	1.91	2.07	2.26	2.20	1.94	1.75	1.61	1.53	1.54	1.60	1.63	1.63
1.85	1.71	1.46	1.32	1.26	1.24	1.17	1.14	1.25	1.41	1.46	1.43	1.40	1.42	1.47	1.54	1.59	1.57	1.52	1.52	1.57	1.70	1.91	2.13	2.17	1.89	1.43	1.19	1.30	1.68	2.02	2.21	2.14	1.86	1.65	1.53	1.42	1.29	1.17	1.17	1.27	1.42	1.55	1.56	1.51	1.60	1.91	2.22	2.21	1.84	1.45	1.25	1.19	1.26	1.44	1.68	1.91	1.97	1.81	1.57	1.44	1.39	1.38	1.40	1.44	1.49	1.60	1.81	2.01	2.05	1.92	1.73	1.57	1.48	1.44	1.44	1.46	1.53	1.71	2.04	2.37	2.48	2.24	1.89	1.72	1.61	1.46	1.36	1.33	1.32	1.29	1.27	1.26	1.24	1.23	1.28	1.39	1.52	1.75	1.96	1.88	1.53	1.27	1.23	1.29	1.38	1.46	1.52	1.56	1.62	1.76	1.91	1.96	1.98	2.13	2.33	2.24	1.95	1.76	1.64	1.57	1.57	1.61	1.63	1.63
1.92	1.77	1.50	1.32	1.24	1.23	1.17	1.09	1.14	1.32	1.44	1.47	1.44	1.39	1.39	1.48	1.54	1.53	1.48	1.45	1.51	1.66	1.85	2.05	2.14	2.00	1.66	1.32	1.24	1.51	1.89	2.17	2.18	1.91	1.65	1.52	1.43	1.32	1.18	1.17	1.28	1.42	1.53	1.56	1.54	1.61	1.85	2.18	2.27	2.03	1.67	1.40	1.21	1.17	1.26	1.48	1.76	1.89	1.78	1.56	1.43	1.38	1.38	1.44	1.49	1.53	1.61	1.79	1.97	1.99	1.89	1.77	1.62	1.51	1.46	1.44	1.47	1.54	1.71	2.01	2.37	2.51	2.30	1.89	1.65	1.51	1.38	1.31	1.30	1.30	1.29	1.28	1.27	1.26	1.27	1.31	1.38	1.46	1.63	1.87	1.92	1.66	1.35	1.23	1.25	1.32	1.39	1.43	1.46	1.49	1.59	1.78	1.92	1.98	2.15	2.37	2.28	1.93	1.73	1.63	1.58	1.59	1.62	1.64	1.64
1.95	1.84	1.60	1.39	1.27	1.23	1.18	1.09	1.08	1.22	1.37	1.47	1.48	1.39	1.36	1.43	1.49	1.50	1.46	1.43	1.47	1.63	1.82	1.99	2.06	1.99	1.82	1.54	1.31	1.40	1.75	2.10	2.21	1.99	1.65	1.46	1.38	1.28	1.19	1.18	1.29	1.42	1.53	1.60	1.66	1.72	1.88	2.15	2.28	2.14	1.86	1.59	1.38	1.24	1.22	1.35	1.62	1.82	1.76	1.57	1.42	1.36	1.36	1.43	1.51	1.54	1.60	1.79	1.97	1.95	1.83	1.75	1.64	1.55	1.51	1.48	1.49	1.53	1.67	1.97	2.35	2.57	2.39	1.98	1.66	1.50	1.38	1.29	1.26	1.27	1.27	1.26	1.26	1.27	1.30	1.35	1.41	1.48	1.58	1.78	1.89	1.74	1.43	1.25	1.21	1.26	1.36	1.42	1.44	1.45	1.51	1.67	1.85	1.99	2.19	2.41	2.32	1.94	1.67	1.57	1.56	1.58	1.62	1.65	1.65
1.93	1.86	1.69	1.47	1.31	1.24	1.20	1.12	1.08	1.15	1.30	1.45	1.50	1.42	1.35	1.37	1.43	1.46	1.45	1.44	1.48	1.60	1.80	1.96	1.97	1.90	1.83	1.67	1.44	1.40	1.63	2.00	2.23	2.10	1.71	1.44	1.32	1.25	1.20	1.21	1.30	1.42	1.52	1.61	1.71	1.82	1.98	2.19	2.31	2.23	1.99	1.73	1.50	1.34	1.26	1.31	1.49	1.71	1.74	1.58	1.43	1.36	1.33	1.38	1.46	1.52	1.58	1.75	1.95	1.95	1.81	1.73	1.66	1.59	1.56	1.55	1.54	1.52	1.58	1.84	2.29	2.59	2.49	2.09	1.73	1.53	1.42	1.31	1.23	1.23	1.24	1.23	1.24	1.25	1.29	1.35	1.41	1.48	1.55	1.71	1.83	1.74	1.48	1.28	1.20	1.23	1.34	1.43	1.44	1.40	1.41	1.53	1.75	1.95	2.19	2.41	2.36	2.03	1.72	1.56	1.53	1.57	1.62	1.64	1.64
1.94	1.85	1.66	1.49	1.35	1.26	1.21	1.16	1.10	1.12	1.23	1.38	1.47	1.45	1.40	1.38	1.42	1.45	1.46	1.48	1.53	1.64	1.83	1.96	1.90	1.80	1.75	1.67	1.51	1.42	1.55	1.88	2.19	2.21	1.89	1.54	1.36	1.27	1.22	1.23	1.31	1.39	1.46	1.54	1.65	1.79	1.98	2.21	2.38	2.38	2.17	1.89	1.62	1.41	1.31	1.31	1.40	1.57	1.68	1.59	1.43	1.35	1.32	1.35	1.43	1.50	1.58	1.72	1.89	1.92	1.83	1.74	1.68	1.63	1.61	1.62	1.65	1.63	1.60	1.73	2.12	2.49	2.50	2.18	1.77	1.57	1.49	1.34	1.19	1.17	1.20	1.20	1.21	1.21	1.24	1.30	1.36	1.43	1.52	1.65	1.77	1.71	1.50	1.33	1.24	1.24	1.32	1.41	1.43	1.40	1.38	1.46	1.66	1.90	2.14	2.36	2.35	2.08	1.78	1.59	1.53	1.56	1.61	1.63	1.63
2.03	1.85	1.60	1.47	1.36	1.26	1.21	1.17	1.13	1.12	1.19	1.30	1.41	1.48	1.49	1.47	1.48	1.51	1.51	1.51	1.56	1.69	1.91	2.03	1.91	1.76	1.68	1.61	1.51	1.43	1.49	1.75	2.09	2.25	2.08	1.72	1.46	1.32	1.24	1.22	1.27	1.33	1.40	1.48	1.58	1.71	1.88	2.12	2.38	2.50	2.36	2.10	1.83	1.57	1.39	1.35	1.36	1.43	1.57	1.57	1.44	1.37	1.35	1.36	1.41	1.50	1.59	1.70	1.82	1.85	1.80	1.74	1.70	1.66	1.63	1.63	1.70	1.77	1.77	1.79	2.01	2.36	2.45	2.20	1.83	1.66	1.59	1.41	1.19	1.12	1.15	1.18	1.19	1.19	1.20	1.25	1.31	1.38	1.48	1.61	1.72	1.68	1.51	1.37	1.29	1.27	1.32	1.40	1.46	1.46	1.42	1.46	1.63	1.85	2.07	2.29	2.33	2.10	1.80	1.60	1.53	1.55	1.60	1.62	1.62
2.14	1.93	1.61	1.49	1.41	1.29	1.20	1.17	1.15	1.15	1.19	1.26	1.36	1.47	1.54	1.55	1.55	1.55	1.53	1.51	1.52	1.66	1.94	2.10	1.99	1.78	1.66	1.59	1.52	1.45	1.47	1.65	1.95	2.18	2.14	1.84	1.54	1.34	1.23	1.19	1.23	1.28	1.35	1.42	1.50	1.61	1.76	1.96	2.24	2.47	2.48	2.28	2.01	1.72	1.50	1.45	1.41	1.35	1.44	1.51	1.45	1.40	1.40	1.41	1.43	1.49	1.59	1.70	1.76	1.75	1.73	1.71	1.69	1.68	1.67	1.63	1.63	1.75	1.87	1.93	2.06	2.32	2.42	2.16	1.88	1.78	1.72	1.55	1.28	1.14	1.14	1.17	1.19	1.18	1.18	1.21	1.28	1.37	1.47	1.59	1.67	1.64	1.51	1.40	1.34	1.32	1.34	1.43	1.53	1.55	1.48	1.46	1.59	1.78	1.99	2.21	2.32	2.19	1.87	1.60	1.53	1.54	1.58	1.61	1.61
2.18	2.00	1.71	1.58	1.52	1.39	1.24	1.17	1.16	1.16	1.19	1.23	1.30	1.41	1.50	1.52	1.52	1.52	1.52	1.50	1.49	1.60	1.88	2.10	2.05	1.81	1.65	1.60	1.55	1.50	1.50	1.61	1.85	2.10	2.16	1.92	1.56	1.33	1.21	1.18	1.22	1.29	1.34	1.38	1.42	1.51	1.65	1.83	2.08	2.37	2.50	2.40	2.13	1.83	1.61	1.55	1.50	1.40	1.37	1.43	1.45	1.43	1.43	1.44	1.47	1.52	1.60	1.69	1.70	1.69	1.69	1.69	1.67	1.67	1.70	1.70	1.66	1.67	1.78	1.95	2.14	2.37	2.44	2.22	1.99	1.90	1.84	1.69	1.44	1.24	1.16	1.16	1.18	1.18	1.17	1.19	1.24	1.34	1.46	1.58	1.63	1.58	1.49	1.42	1.39	1.39	1.40	1.42	1.52	1.59	1.55	1.52	1.59	1.72	1.89	2.09	2.27	2.28	2.02	1.68	1.53	1.52	1.57	1.61	1.61
2.16	2.02	1.78	1.63	1.57	1.50	1.36	1.23	1.17	1.16	1.17	1.19	1.23	1.32	1.41	1.45	1.46	1.48	1.50	1.50	1.49	1.58	1.80	2.06	2.06	1.82	1.62	1.59	1.56	1.52	1.54	1.64	1.81	2.05	2.21	2.07	1.71	1.38	1.19	1.16	1.23	1.32	1.38	1.39	1.41	1.45	1.56	1.73	1.98	2.26	2.46	2.45	2.23	1.92	1.70	1.63	1.58	1.47	1.39	1.39	1.42	1.43	1.43	1.47	1.52	1.57	1.62	1.65	1.66	1.67	1.68	1.69	1.68	1.67	1.68	1.72	1.75	1.75	1.76	1.86	2.08	2.31	2.40	2.27	2.07	1.96	1.89	1.76	1.54	1.34	1.20	1.16	1.18	1.18	1.17	1.17	1.20	1.29	1.45	1.58	1.60	1.53	1.47	1.43	1.41	1.46	1.53	1.52	1.51	1.58	1.59	1.60	1.64	1.69	1.79	1.94	2.14	2.28	2.15	1.81	1.58	1.49	1.54	1.60	1.60
2.12	2.02	1.83	1.66	1.55	1.53	1.50	1.40	1.26	1.17	1.16	1.15	1.16	1.22	1.32	1.39	1.44	1.48	1.50	1.52	1.52	1.60	1.79	2.03	2.07	1.82	1.58	1.53	1.52	1.48	1.50	1.62	1.77	1.98	2.20	2.22	1.96	1.56	1.21	1.12	1.18	1.30	1.38	1.43	1.44	1.46	1.52	1.65	1.89	2.15	2.38	2.47	2.30	2.01	1.78	1.70	1.64	1.52	1.43	1.39	1.40	1.40	1.41	1.46	1.56	1.63	1.61	1.60	1.63	1.65	1.67	1.68	1.70	1.70	1.67	1.67	1.72	1.81	1.86	1.91	2.02	2.17	2.24	2.19	2.07	1.96	1.87	1.75	1.59	1.39	1.23	1.16	1.17	1.18	1.18	1.16	1.17	1.23	1.40	1.57	1.59	1.52	1.47	1.43	1.41	1.47	1.61	1.67	1.63	1.61	1.63	1.67	1.69	1.68	1.71	1.81	2.02	2.22	2.18	1.91	1.64	1.48	1.51	1.58	1.58
2.06	2.02	1.92	1.76	1.58	1.50	1.54	1.56	1.45	1.27	1.19	1.16	1.13	1.15	1.24	1.35	1.43	1.48	1.52	1.56	1.60	1.67	1.82	2.03	2.10	1.87	1.57	1.48	1.48	1.44	1.44	1.52	1.67	1.86	2.08	2.23	2.17	1.85	1.38	1.13	1.12	1.23	1.35	1.45	1.49	1.50	1.53	1.62	1.81	2.03	2.29	2.45	2.35	2.09	1.89	1.79	1.70	1.55	1.44	1.40	1.39	1.38	1.38	1.44	1.58	1.68	1.63	1.59	1.61	1.64	1.67	1.69	1.69	1.70	1.69	1.68	1.68	1.75	1.89	1.99	2.09	2.15	2.11	2.04	2.00	1.95	1.85	1.75	1.63	1.45	1.25	1.15	1.15	1.17	1.18	1.17	1.16	1.20	1.34	1.52	1.57	1.50	1.45	1.43	1.41	1.45	1.57	1.70	1.71	1.69	1.70	1.73	1.72	1.68	1.68	1.75	1.95	2.18	2.18	1.94	1.66	1.47	1.47	1.53	1.53
1.98	1.99	1.97	1.89	1.70	1.50	1.48	1.58	1.60	1.43	1.28	1.22	1.17	1.12	1.16	1.29	1.39	1.44	1.51	1.59	1.64	1.72	1.85	2.03	2.14	1.97	1.62	1.46	1.44	1.42	1.41	1.47	1.57	1.72	1.92	2.11	2.20	2.09	1.72	1.30	1.15	1.18	1.32	1.46	1.51	1.53	1.55	1.60	1.75	1.95	2.19	2.38	2.36	2.19	2.01	1.89	1.77	1.59	1.45	1.42	1.40	1.38	1.37	1.41	1.57	1.69	1.65	1.61	1.62	1.65	1.69	1.72	1.72	1.69	1.67	1.69	1.72	1.74	1.82	2.01	2.21	2.28	2.11	1.94	1.92	1.92	1.85	1.77	1.68	1.53	1.31	1.14	1.11	1.14	1.17	1.17	1.17	1.19	1.30	1.45	1.51	1.47	1.42	1.40	1.41	1.45	1.53	1.63	1.70	1.74	1.78	1.78	1.72	1.65	1.63	1.72	1.93	2.18	2.23	2.00	1.66	1.45	1.42	1.44	1.44
1.91	1.89	1.89	1.90	1.81	1.58	1.43	1.50	1.61	1.55	1.39	1.32	1.26	1.16	1.12	1.20	1.30	1.37	1.46	1.55	1.61	1.70	1.84	2.02	2.15	2.05	1.71	1.46	1.39	1.37	1.40	1.46	1.52	1.61	1.76	1.92	2.06	2.12	1.98	1.63	1.31	1.21	1.28	1.42	1.48	1.49	1.51	1.57	1.72	1.93	2.13	2.27	2.29	2.24	2.13	2.00	1.85	1.64	1.47	1.43	1.42	1.40	1.39	1.41	1.55	1.67	1.65	1.61	1.63	1.66	1.71	1.76	1.78	1.74	1.67	1.65	1.71	1.76	1.79	1.96	2.25	2.42	2.27	1.99	1.90	1.89	1.83	1.78	1.74	1.61	1.40	1.19	1.09	1.11	1.16	1.18	1.19	1.21	1.28	1.39	1.44	1.42	1.38	1.35	1.36	1.42	1.49	1.58	1.67	1.77	1.84	1.82	1.74	1.64	1.58	1.67	1.89	2.14	2.27	2.17	1.84	1.51	1.38	1.37	1.37
1.94	1.85	1.72	1.75	1.77	1.63	1.45	1.42	1.56	1.59	1.50	1.45	1.42	1.30	1.17	1.16	1.22	1.29	1.37	1.46	1.55	1.66	1.82	1.99	2.14	2.11	1.81	1.48	1.34	1.31	1.34	1.42	1.48	1.54	1.65	1.78	1.88	1.98	1.99	1.82	1.53	1.32	1.28	1.36	1.43	1.44	1.46	1.52	1.70	1.93	2.08	2.13	2.16	2.21	2.20	2.11	1.95	1.71	1.51	1.45	1.44	1.43	1.42	1.43	1.52	1.62	1.62	1.60	1.62	1.67	1.73	1.79	1.83	1.82	1.77	1.70	1.70	1.76	1.79	1.87	2.14	2.45	2.47	2.21	2.02	1.94	1.84	1.81	1.80	1.67	1.47	1.29	1.13	1.10	1.16	1.20	1.22	1.24	1.29	1.37	1.41	1.40	1.35	1.32	1.32	1.36	1.46	1.56	1.68	1.78	1.85	1.84	1.77	1.66	1.55	1.61	1.82	2.03	2.20	2.26	2.05	1.66	1.39	1.34	1.34
2.06	1.90	1.63	1.55	1.57	1.52	1.40	1.36	1.46	1.56	1.56	1.54	1.55	1.48	1.31	1.22	1.21	1.24	1.29	1.39	1.49	1.61	1.78	1.96	2.12	2.15	1.93	1.57	1.33	1.25	1.24	1.30	1.38	1.47	1.59	1.70	1.77	1.83	1.86	1.79	1.62	1.45	1.35	1.36	1.40	1.41	1.41	1.49	1.69	1.92	2.03	2.01	2.02	2.12	2.20	2.19	2.06	1.82	1.60	1.50	1.46	1.44	1.44	1.46	1.53	1.59	1.58	1.57	1.60	1.66	1.72	1.79	1.85	1.89	1.90	1.88	1.84	1.84	1.82	1.80	1.98	2.36	2.57	2.51	2.31	2.11	1.95	1.90	1.90	1.76	1.53	1.36	1.22	1.14	1.17	1.22	1.25	1.27	1.31	1.36	1.39	1.38	1.35	1.34	1.36	1.42	1.49	1.58	1.69	1.79	1.84	1.84	1.80	1.68	1.55	1.58	1.79	1.95	2.07	2.20	2.14	1.80	1.43	1.33	1.33
2.21	2.00	1.65	1.50	1.44	1.37	1.30	1.25	1.31	1.43	1.50	1.52	1.56	1.54	1.43	1.31	1.25	1.25	1.29	1.38	1.47	1.57	1.74	1.92	2.07	2.15	2.05	1.76	1.45	1.26	1.19	1.20	1.26	1.37	1.52	1.62	1.67	1.72	1.74	1.70	1.63	1.53	1.44	1.40	1.41	1.42	1.43	1.50	1.70	1.91	1.99	1.94	1.92	2.02	2.15	2.21	2.14	1.94	1.74	1.61	1.52	1.47	1.46	1.49	1.55	1.59	1.55	1.54	1.57	1.63	1.70	1.76	1.83	1.88	1.93	1.96	1.97	1.99	1.90	1.75	1.84	2.17	2.47	2.61	2.56	2.39	2.20	2.14	2.12	1.96	1.69	1.46	1.30	1.21	1.20	1.24	1.28	1.30	1.32	1.36	1.39	1.39	1.37	1.38	1.41	1.46	1.53	1.61	1.70	1.77	1.81	1.84	1.82	1.71	1.56	1.57	1.78	1.92	1.99	2.12	2.17	1.92	1.50	1.34	1.34
2.33	2.13	1.76	1.55	1.45	1.35	1.25	1.18	1.17	1.24	1.35	1.44	1.49	1.50	1.44	1.36	1.31	1.29	1.31	1.39	1.48	1.58	1.73	1.88	2.00	2.10	2.09	1.94	1.70	1.42	1.24	1.18	1.22	1.31	1.46	1.56	1.60	1.64	1.66	1.65	1.62	1.56	1.49	1.46	1.45	1.45	1.47	1.54	1.71	1.90	1.95	1.88	1.86	1.94	2.08	2.18	2.16	2.03	1.85	1.73	1.61	1.52	1.48	1.49	1.56	1.60	1.54	1.50	1.52	1.59	1.66	1.68	1.73	1.78	1.82	1.86	1.96	2.07	1.95	1.69	1.67	1.93	2.21	2.44	2.55	2.49	2.37	2.34	2.35	2.26	2.01	1.68	1.42	1.30	1.26	1.28	1.31	1.33	1.35	1.37	1.40	1.41	1.41	1.42	1.43	1.47	1.55	1.64	1.71	1.75	1.79	1.83	1.82	1.72	1.58	1.58	1.78	1.89	1.93	2.05	2.16	2.00	1.58	1.37	1.37
2.36	2.22	1.92	1.69	1.57	1.47	1.34	1.22	1.13	1.12	1.22	1.36	1.44	1.45	1.42	1.38	1.34	1.31	1.33	1.39	1.47	1.59	1.73	1.86	1.95	2.02	2.04	1.99	1.87	1.67	1.40	1.24	1.23	1.29	1.42	1.53	1.57	1.59	1.61	1.61	1.61	1.57	1.53	1.49	1.47	1.46	1.47	1.56	1.74	1.90	1.91	1.83	1.81	1.89	2.02	2.11	2.11	2.01	1.86	1.73	1.63	1.55	1.49	1.47	1.53	1.58	1.53	1.46	1.45	1.52	1.57	1.58	1.60	1.65	1.70	1.79	1.93	2.07	1.96	1.64	1.49	1.65	1.91	2.19	2.38	2.33	2.21	2.22	2.33	2.38	2.28	2.02	1.67	1.44	1.34	1.34	1.35	1.36	1.37	1.38	1.39	1.40	1.43	1.45	1.45	1.47	1.56	1.66	1.72	1.74	1.77	1.81	1.80	1.69	1.58	1.61	1.79	1.88	1.90	1.98	2.10	2.03	1.67	1.44	1.44
2.26	2.20	2.04	1.83	1.72	1.65	1.53	1.39	1.24	1.14	1.16	1.28	1.38	1.41	1.40	1.38	1.36	1.34	1.35	1.39	1.46	1.57	1.72	1.85	1.93	1.97	1.96	1.92	1.89	1.81	1.60	1.37	1.29	1.32	1.40	1.51	1.57	1.58	1.58	1.59	1.60	1.59	1.56	1.52	1.48	1.46	1.48	1.58	1.75	1.88	1.87	1.78	1.75	1.84	1.99	2.06	2.04	1.95	1.81	1.67	1.60	1.54	1.49	1.45	1.48	1.53	1.51	1.44	1.41	1.44	1.50	1.51	1.53	1.58	1.65	1.78	1.95	2.08	1.98	1.62	1.37	1.46	1.70	2.04	2.29	2.19	1.94	1.92	2.09	2.28	2.34	2.21	1.92	1.60	1.44	1.40	1.40	1.39	1.38	1.38	1.37	1.36	1.38	1.43	1.46	1.48	1.57	1.67	1.70	1.73	1.77	1.80	1.76	1.64	1.57	1.65	1.81	1.89	1.90	1.96	2.05	2.01	1.72	1.50	1.50
2.11	2.13	2.07	1.87	1.71	1.69	1.70	1.62	1.46	1.28	1.21	1.25	1.33	1.37	1.38	1.39	1.38	1.38	1.38	1.40	1.45	1.55	1.68	1.81	1.91	1.96	1.91	1.84	1.82	1.82	1.70	1.50	1.38	1.38	1.43	1.51	1.57	1.59	1.58	1.57	1.58	1.59	1.56	1.52	1.48	1.46	1.51	1.62	1.76	1.86	1.83	1.74	1.68	1.79	1.98	2.08	2.04	1.91	1.76	1.64	1.56	1.51	1.46	1.43	1.45	1.48	1.46	1.41	1.39	1.44	1.50	1.52	1.54	1.59	1.65	1.77	1.95	2.11	2.06	1.67	1.36	1.38	1.60	1.96	2.30	2.25	1.88	1.68	1.82	2.10	2.27	2.23	2.01	1.72	1.55	1.45	1.44	1.43	1.39	1.37	1.35	1.33	1.31	1.37	1.44	1.49	1.57	1.63	1.67	1.71	1.77	1.78	1.72	1.60	1.56	1.66	1.81	1.88	1.91	1.97	2.03	2.00	1.74	1.54	1.54
2.01	2.07	2.09	1.88	1.60	1.53	1.64	1.70	1.62	1.44	1.31	1.29	1.33	1.35	1.36	1.38	1.41	1.42	1.42	1.41	1.44	1.52	1.64	1.77	1.90	1.98	1.90	1.77	1.75	1.78	1.72	1.57	1.46	1.44	1.47	1.54	1.61	1.63	1.61	1.58	1.57	1.55	1.52	1.49	1.46	1.45	1.52	1.66	1.78	1.83	1.80	1.70	1.65	1.75	1.96	2.11	2.09	1.91	1.71	1.60	1.52	1.45	1.42	1.41	1.42	1.44	1.43	1.38	1.37	1.44	1.54	1.57	1.57	1.60	1.65	1.74	1.90	2.10	2.15	1.82	1.41	1.34	1.52	1.86	2.25	2.37	2.07	1.68	1.64	1.91	2.16	2.21	2.02	1.76	1.60	1.51	1.48	1.46	1.42	1.38	1.35	1.33	1.32	1.35	1.43	1.50	1.55	1.60	1.64	1.70	1.77	1.76	1.67	1.56	1.54	1.65	1.79	1.85	1.88	1.95	2.02	2.00	1.75	1.56	1.56
1.97	2.03	2.09	1.95	1.63	1.40	1.43	1.57	1.63	1.53	1.38	1.33	1.34	1.34	1.34	1.36	1.40	1.43	1.43	1.44	1.45	1.51	1.61	1.72	1.87	2.00	1.94	1.78	1.73	1.75	1.73	1.62	1.50	1.47	1.49	1.56	1.65	1.70	1.67	1.62	1.56	1.49	1.46	1.46	1.44	1.44	1.53	1.69	1.80	1.82	1.76	1.68	1.63	1.72	1.92	2.12	2.17	2.02	1.81	1.67	1.56	1.43	1.37	1.38	1.40	1.42	1.40	1.37	1.35	1.41	1.52	1.59	1.58	1.60	1.65	1.71	1.80	2.00	2.15	1.96	1.53	1.33	1.42	1.72	2.11	2.37	2.31	1.91	1.62	1.71	2.02	2.19	2.06	1.77	1.59	1.53	1.52	1.50	1.46	1.41	1.37	1.35	1.36	1.40	1.47	1.52	1.56	1.59	1.64	1.70	1.75	1.73	1.63	1.55	1.55	1.64	1.76	1.83	1.86	1.91	1.98	2.00	1.80	1.63	1.63
1.96	2.02	2.07	1.97	1.73	1.45	1.35	1.40	1.50	1.50	1.40	1.34	1.34	1.33	1.32	1.32	1.36	1.42	1.44	1.45	1.46	1.49	1.58	1.67	1.81	1.97	1.97	1.83	1.74	1.74	1.76	1.66	1.53	1.48	1.50	1.54	1.64	1.72	1.74	1.68	1.56	1.45	1.43	1.45	1.44	1.43	1.51	1.69	1.81	1.79	1.72	1.65	1.62	1.69	1.87	2.06	2.17	2.14	1.99	1.88	1.73	1.49	1.35	1.33	1.36	1.38	1.38	1.36	1.36	1.40	1.49	1.57	1.58	1.61	1.67	1.73	1.75	1.87	2.07	2.03	1.67	1.36	1.35	1.62	1.95	2.24	2.38	2.18	1.76	1.59	1.83	2.11	2.10	1.80	1.56	1.50	1.51	1.52	1.49	1.44	1.39	1.37	1.38	1.43	1.51	1.56	1.58	1.61	1.65	1.71	1.73	1.69	1.61	1.56	1.59	1.66	1.74	1.81	1.85	1.87	1.92	1.96	1.84	1.72	1.72
1.95	2.04	2.11	1.95	1.68	1.48	1.35	1.32	1.36	1.41	1.38	1.33	1.32	1.32	1.30	1.30	1.34	1.41	1.47	1.48	1.48	1.51	1.58	1.66	1.74	1.87	1.92	1.85	1.73	1.70	1.76	1.71	1.57	1.51	1.50	1.51	1.59	1.71	1.79	1.77	1.60	1.42	1.38	1.43	1.44	1.43	1.50	1.66	1.79	1.77	1.69	1.64	1.63	1.69	1.83	1.97	2.09	2.13	2.08	2.04	1.95	1.69	1.41	1.30	1.32	1.35	1.35	1.36	1.38	1.43	1.50	1.55	1.58	1.62	1.69	1.75	1.77	1.78	1.95	2.05	1.80	1.43	1.33	1.56	1.86	2.09	2.32	2.33	2.00	1.67	1.68	1.99	2.11	1.87	1.57	1.46	1.48	1.51	1.51	1.46	1.43	1.41	1.40	1.44	1.51	1.57	1.60	1.63	1.67	1.71	1.72	1.67	1.61	1.57	1.61	1.69	1.75	1.80	1.83	1.82	1.84	1.91	1.87	1.80	1.80
1.89	2.07	2.24	2.02	1.64	1.46	1.37	1.30	1.29	1.34	1.35	1.31	1.29	1.30	1.30	1.32	1.36	1.44	1.53	1.57	1.57	1.58	1.64	1.71	1.73	1.74	1.80	1.81	1.68	1.61	1.70	1.72	1.61	1.53	1.50	1.50	1.57	1.71	1.85	1.89	1.71	1.44	1.33	1.39	1.43	1.45	1.51	1.64	1.74	1.73	1.65	1.63	1.65	1.70	1.78	1.89	1.97	2.01	2.02	2.05	2.07	1.92	1.59	1.36	1.30	1.32	1.32	1.32	1.35	1.41	1.48	1.53	1.56	1.59	1.67	1.78	1.81	1.74	1.81	1.98	1.91	1.54	1.33	1.53	1.81	1.97	2.18	2.33	2.20	1.87	1.68	1.89	2.09	1.95	1.63	1.46	1.46	1.50	1.51	1.49	1.47	1.46	1.46	1.46	1.50	1.56	1.60	1.64	1.68	1.70	1.70	1.66	1.61	1.59	1.64	1.72	1.77	1.80	1.80	1.77	1.77	1.86	1.90	1.88	1.88
1.78	2.03	2.33	2.24	1.87	1.58	1.44	1.32	1.22	1.25	1.31	1.29	1.27	1.28	1.30	1.33	1.39	1.47	1.56	1.62	1.64	1.64	1.69	1.76	1.75	1.67	1.68	1.72	1.62	1.50	1.57	1.63	1.59	1.53	1.50	1.50	1.57	1.70	1.86	1.96	1.86	1.55	1.33	1.31	1.37	1.44	1.54	1.64	1.70	1.66	1.61	1.63	1.66	1.69	1.74	1.81	1.86	1.90	1.93	1.98	2.06	2.06	1.85	1.52	1.34	1.31	1.29	1.27	1.28	1.34	1.41	1.49	1.53	1.56	1.66	1.82	1.86	1.74	1.69	1.83	1.91	1.66	1.34	1.47	1.76	1.90	2.05	2.24	2.25	2.02	1.74	1.80	2.05	2.03	1.71	1.48	1.45	1.49	1.51	1.51	1.50	1.51	1.51	1.51	1.52	1.55	1.60	1.63	1.65	1.67	1.67	1.64	1.61	1.61	1.67	1.74	1.81	1.83	1.78	1.68	1.67	1.78	1.90	1.93	1.93
1.65	1.91	2.30	2.38	2.14	1.81	1.57	1.40	1.24	1.18	1.22	1.25	1.25	1.26	1.28	1.32	1.39	1.45	1.52	1.61	1.67	1.70	1.74	1.80	1.79	1.67	1.61	1.64	1.58	1.47	1.45	1.50	1.52	1.51	1.49	1.50	1.55	1.66	1.81	1.95	1.95	1.72	1.43	1.28	1.29	1.39	1.54	1.66	1.68	1.62	1.60	1.64	1.68	1.69	1.70	1.73	1.77	1.81	1.85	1.91	1.98	2.06	1.99	1.69	1.40	1.30	1.28	1.24	1.23	1.27	1.35	1.45	1.50	1.56	1.68	1.82	1.87	1.77	1.65	1.70	1.84	1.73	1.40	1.37	1.64	1.83	1.97	2.14	2.21	2.08	1.81	1.75	1.98	2.07	1.80	1.51	1.45	1.48	1.50	1.49	1.48	1.50	1.53	1.53	1.54	1.57	1.61	1.62	1.62	1.62	1.63	1.61	1.61	1.64	1.70	1.78	1.86	1.90	1.79	1.59	1.53	1.69	1.88	1.95	1.95
1.54	1.76	2.17	2.41	2.31	1.98	1.71	1.53	1.39	1.24	1.18	1.19	1.21	1.22	1.24	1.28	1.35	1.43	1.51	1.62	1.74	1.83	1.88	1.89	1.83	1.71	1.63	1.64	1.62	1.51	1.42	1.41	1.45	1.46	1.46	1.48	1.53	1.63	1.76	1.89	1.96	1.86	1.61	1.34	1.23	1.31	1.52	1.66	1.66	1.60	1.61	1.67	1.70	1.70	1.68	1.67	1.68	1.71	1.77	1.84	1.91	2.00	2.02	1.82	1.49	1.31	1.26	1.24	1.21	1.22	1.30	1.42	1.50	1.58	1.70	1.79	1.84	1.80	1.69	1.65	1.76	1.75	1.51	1.37	1.50	1.73	1.91	2.06	2.15	2.08	1.86	1.75	1.92	2.08	1.89	1.56	1.44	1.45	1.48	1.47	1.44	1.45	1.49	1.53	1.55	1.59	1.61	1.61	1.59	1.59	1.60	1.61	1.63	1.67	1.73	1.81	1.91	1.96	1.85	1.58	1.45	1.61	1.85	1.93	1.93
1.47	1.63	1.99	2.35	2.42	2.15	1.83	1.64	1.50	1.37	1.22	1.14	1.15	1.17	1.18	1.22	1.30	1.39	1.50	1.63	1.78	1.91	2.02	2.03	1.93	1.80	1.73	1.71	1.71	1.63	1.48	1.39	1.40	1.42	1.42	1.44	1.49	1.60	1.72	1.83	1.91	1.92	1.78	1.52	1.29	1.26	1.46	1.63	1.63	1.59	1.63	1.70	1.73	1.74	1.70	1.64	1.61	1.61	1.67	1.78	1.87	1.96	2.03	1.92	1.60	1.34	1.24	1.21	1.19	1.18	1.24	1.38	1.52	1.63	1.72	1.77	1.79	1.78	1.72	1.65	1.71	1.76	1.60	1.41	1.45	1.66	1.84	1.98	2.06	2.03	1.88	1.76	1.88	2.05	1.94	1.63	1.46	1.45	1.47	1.47	1.43	1.41	1.45	1.50	1.56	1.61	1.62	1.60	1.58	1.57	1.58	1.61	1.64	1.69	1.75	1.82	1.94	2.01	1.90	1.61	1.41	1.53	1.79	1.90	1.90
1.44	1.54	1.81	2.19	2.40	2.32	2.01	1.67	1.48	1.39	1.26	1.13	1.09	1.11	1.13	1.17	1.23	1.31	1.41	1.53	1.66	1.83	2.01	2.12	2.04	1.89	1.82	1.80	1.79	1.73	1.57	1.42	1.38	1.39	1.39	1.41	1.47	1.58	1.69	1.77	1.84	1.90	1.88	1.70	1.43	1.29	1.42	1.58	1.58	1.56	1.62	1.71	1.76	1.78	1.74	1.64	1.58	1.56	1.60	1.72	1.83	1.93	2.02	2.01	1.78	1.46	1.25	1.17	1.16	1.16	1.20	1.33	1.52	1.69	1.78	1.78	1.74	1.73	1.70	1.64	1.68	1.76	1.65	1.47	1.48	1.64	1.79	1.91	1.97	1.96	1.87	1.79	1.87	2.02	1.96	1.68	1.50	1.46	1.48	1.49	1.46	1.42	1.43	1.48	1.56	1.63	1.64	1.60	1.56	1.54	1.56	1.61	1.65	1.69	1.75	1.84	1.96	2.05	1.96	1.65	1.40	1.46	1.72	1.84	1.84
1.50	1.53	1.68	1.99	2.28	2.40	2.28	1.93	1.64	1.51	1.39	1.21	1.07	1.06	1.10	1.13	1.17	1.21	1.28	1.36	1.49	1.68	1.93	2.09	2.05	1.92	1.84	1.81	1.81	1.77	1.62	1.47	1.41	1.40	1.40	1.43	1.50	1.60	1.66	1.71	1.77	1.84	1.88	1.80	1.57	1.37	1.41	1.53	1.53	1.52	1.60	1.69	1.75	1.80	1.78	1.68	1.56	1.51	1.57	1.67	1.77	1.87	1.98	2.06	1.98	1.70	1.33	1.15	1.14	1.17	1.21	1.29	1.46	1.70	1.83	1.84	1.75	1.70	1.66	1.60	1.63	1.74	1.68	1.51	1.52	1.66	1.76	1.84	1.90	1.87	1.81	1.80	1.86	1.99	1.98	1.75	1.54	1.49	1.49	1.51	1.49	1.45	1.44	1.48	1.56	1.62	1.64	1.60	1.54	1.50	1.52	1.58	1.64	1.67	1.73	1.83	1.96	2.08	2.07	1.81	1.47	1.42	1.63	1.77	1.77
1.54	1.56	1.66	1.87	2.13	2.33	2.39	2.30	2.10	1.92	1.71	1.40	1.14	1.05	1.07	1.10	1.12	1.15	1.20	1.27	1.41	1.63	1.86	2.00	1.99	1.89	1.82	1.79	1.81	1.78	1.64	1.49	1.43	1.41	1.39	1.42	1.51	1.62	1.66	1.66	1.69	1.76	1.83	1.82	1.64	1.43	1.42	1.50	1.51	1.50	1.57	1.66	1.73	1.78	1.80	1.72	1.56	1.46	1.53	1.64	1.73	1.81	1.90	2.03	2.10	1.92	1.48	1.18	1.14	1.18	1.23	1.27	1.37	1.62	1.82	1.86	1.78	1.69	1.61	1.56	1.59	1.70	1.66	1.52	1.55	1.67	1.74	1.79	1.83	1.81	1.77	1.79	1.86	1.96	1.99	1.81	1.59	1.52	1.50	1.50	1.50	1.48	1.47	1.50	1.56	1.62	1.63	1.60	1.52	1.46	1.46	1.53	1.60	1.64	1.69	1.79	1.91	2.04	2.12	1.98	1.64	1.45	1.56	1.67	1.67
1.47	1.54	1.67	1.83	2.01	2.14	2.25	2.31	2.29	2.22	2.06	1.68	1.28	1.09	1.07	1.09	1.10	1.13	1.18	1.24	1.39	1.63	1.83	1.94	1.93	1.86	1.79	1.77	1.81	1.80	1.67	1.50	1.43	1.41	1.37	1.37	1.47	1.63	1.69	1.65	1.64	1.71	1.79	1.80	1.65	1.48	1.46	1.54	1.56	1.54	1.57	1.63	1.70	1.74	1.78	1.76	1.59	1.43	1.48	1.61	1.69	1.74	1.80	1.93	2.10	2.08	1.70	1.29	1.17	1.20	1.25	1.29	1.36	1.57	1.79	1.82	1.75	1.67	1.57	1.53	1.58	1.68	1.64	1.52	1.55	1.69	1.75	1.75	1.76	1.75	1.75	1.78	1.84	1.93	1.99	1.86	1.66	1.56	1.53	1.51	1.50	1.48	1.47	1.51	1.56	1.61	1.62	1.59	1.53	1.46	1.43	1.47	1.55	1.61	1.66	1.74	1.84	1.96	2.07	2.04	1.80	1.56	1.54	1.60	1.60
1.37	1.45	1.62	1.78	1.91	1.98	2.03	2.07	2.13	2.23	2.26	2.01	1.52	1.19	1.09	1.09	1.11	1.14	1.17	1.22	1.35	1.58	1.80	1.91	1.91	1.84	1.78	1.76	1.79	1.81	1.73	1.54	1.43	1.41	1.38	1.34	1.41	1.59	1.70	1.67	1.65	1.70	1.78	1.77	1.63	1.49	1.48	1.57	1.63	1.61	1.60	1.62	1.67	1.70	1.74	1.76	1.62	1.43	1.44	1.57	1.64	1.67	1.70	1.80	2.01	2.13	1.91	1.49	1.27	1.24	1.28	1.34	1.42	1.59	1.78	1.81	1.72	1.63	1.54	1.50	1.58	1.67	1.65	1.53	1.54	1.69	1.76	1.74	1.71	1.69	1.70	1.75	1.79	1.86	1.93	1.87	1.72	1.62	1.57	1.53	1.50	1.47	1.46	1.50	1.55	1.59	1.61	1.59	1.54	1.48	1.44	1.43	1.50	1.58	1.63	1.69	1.78	1.89	2.01	2.03	1.86	1.65	1.58	1.58	1.58
1.38	1.43	1.56	1.70	1.82	1.88	1.87	1.87	1.93	2.07	2.25	2.25	1.90	1.41	1.15	1.11	1.13	1.15	1.18	1.22	1.32	1.52	1.74	1.88	1.90	1.84	1.77	1.74	1.75	1.78	1.77	1.62	1.47	1.42	1.40	1.36	1.39	1.53	1.65	1.65	1.66	1.72	1.80	1.78	1.61	1.46	1.45	1.54	1.64	1.66	1.64	1.63	1.65	1.67	1.69	1.73	1.63	1.45	1.43	1.53	1.59	1.60	1.61	1.68	1.88	2.08	1.99	1.66	1.40	1.31	1.31	1.37	1.47	1.62	1.78	1.82	1.72	1.60	1.49	1.46	1.54	1.64	1.65	1.55	1.54	1.68	1.76	1.74	1.69	1.64	1.66	1.72	1.75	1.77	1.82	1.81	1.74	1.66	1.61	1.56	1.53	1.49	1.46	1.49	1.54	1.58	1.59	1.58	1.55	1.52	1.49	1.44	1.45	1.54	1.61	1.66	1.73	1.84	1.97	2.00	1.87	1.70	1.61	1.60	1.60
