ncols	125
nrows	152
xllcorner	-2042055
yllcorner	1465245
cellsize	30.000000
NODATA_value	-9999.000000
2.88	2.75	2.49	2.24	2.11	1.99	1.89	1.95	2.13	2.21	2.18	2.08	2.03	2.15	2.36	2.38	2.05	1.58	1.36	1.64	2.13	2.22	1.85	1.44	1.17	1.05	1.03	1.09	1.13	1.20	1.46	1.83	2.14	2.29	2.31	2.34	2.38	2.37	2.30	2.19	2.09	2.07	2.10	2.08	2.00	1.93	1.98	2.30	2.95	3.29	3.07	2.53	2.05	1.80	1.75	1.75	1.69	1.59	1.49	1.47	1.55	1.66	1.71	1.71	1.79	2.01	2.24	2.28	2.12	1.90	1.79	1.82	1.91	2.02	2.14	2.21	2.30	2.43	2.46	2.38	2.31	2.29	2.25	2.16	2.02	1.78	1.47	1.44	1.73	1.91	1.98	2.12	2.10	1.75	1.41	1.36	1.38	1.34	1.28	1.31	1.45	1.65	1.83	1.95	1.99	1.89	1.99	2.33	2.39	2.20	2.14	2.20	2.27	2.75	3.58	3.63	2.94	2.17	1.64	1.68	2.05	2.11	1.78	1.54	1.54
2.87	2.73	2.35	2.12	2.00	1.93	1.89	2.04	2.24	2.30	2.23	2.17	2.18	2.21	2.24	2.19	1.93	1.53	1.41	1.74	2.14	2.07	1.66	1.33	1.15	1.10	1.12	1.18	1.22	1.34	1.64	2.04	2.42	2.58	2.49	2.36	2.31	2.31	2.26	2.17	2.11	2.12	2.16	2.16	2.03	1.95	2.01	2.52	3.18	3.32	2.95	2.36	1.90	1.61	1.59	1.63	1.57	1.44	1.38	1.41	1.51	1.63	1.71	1.69	1.76	2.06	2.39	2.40	2.10	1.76	1.64	1.76	1.98	2.17	2.29	2.37	2.47	2.58	2.54	2.40	2.30	2.29	2.28	2.20	2.02	1.77	1.55	1.58	1.84	1.93	1.88	1.83	1.66	1.44	1.30	1.27	1.30	1.32	1.27	1.33	1.58	1.82	1.97	2.13	2.26	2.38	2.61	2.79	2.63	2.35	2.31	2.46	2.66	3.10	3.48	3.28	2.49	1.86	1.63	1.81	2.07	2.03	1.72	1.54	1.54
2.97	2.73	2.31	2.07	1.97	1.96	2.04	2.25	2.37	2.34	2.27	2.23	2.22	2.17	2.08	1.99	1.80	1.54	1.55	1.90	2.12	1.90	1.50	1.26	1.17	1.17	1.21	1.27	1.38	1.63	1.99	2.37	2.66	2.64	2.34	2.09	2.10	2.21	2.20	2.12	2.09	2.11	2.16	2.17	2.09	1.98	2.08	2.72	3.27	3.21	2.70	2.16	1.74	1.51	1.49	1.53	1.50	1.41	1.36	1.40	1.51	1.66	1.78	1.75	1.79	2.17	2.49	2.41	2.07	1.68	1.56	1.80	2.20	2.44	2.52	2.57	2.64	2.63	2.49	2.32	2.25	2.24	2.22	2.16	1.98	1.72	1.59	1.68	1.85	1.79	1.60	1.52	1.44	1.36	1.31	1.26	1.25	1.33	1.37	1.45	1.75	2.05	2.23	2.49	2.76	2.91	2.94	2.79	2.43	2.23	2.32	2.51	2.76	3.11	3.22	2.88	2.30	1.88	1.75	1.83	1.92	1.83	1.63	1.54	1.54
3.07	2.82	2.40	2.15	2.06	2.09	2.24	2.38	2.41	2.30	2.22	2.21	2.18	2.06	1.93	1.86	1.75	1.62	1.71	1.98	2.03	1.73	1.37	1.21	1.20	1.25	1.33	1.46	1.69	2.01	2.29	2.51	2.59	2.39	2.00	1.83	1.99	2.15	2.14	2.06	2.04	2.06	2.14	2.19	2.11	1.99	2.21	2.88	3.25	3.04	2.45	2.01	1.68	1.46	1.40	1.42	1.43	1.37	1.33	1.38	1.52	1.74	1.93	1.95	1.98	2.29	2.51	2.36	2.04	1.76	1.62	1.96	2.44	2.67	2.66	2.62	2.57	2.45	2.23	2.11	2.09	2.09	2.08	2.02	1.87	1.65	1.60	1.69	1.73	1.58	1.46	1.45	1.44	1.40	1.38	1.36	1.36	1.49	1.69	1.84	2.11	2.41	2.70	3.01	3.12	3.01	2.75	2.37	2.02	2.02	2.21	2.37	2.61	3.02	3.11	2.72	2.24	1.95	1.78	1.73	1.71	1.66	1.53	1.51	1.51
3.09	2.87	2.50	2.27	2.19	2.21	2.30	2.33	2.25	2.13	2.08	2.08	2.06	1.94	1.84	1.81	1.77	1.71	1.77	1.94	1.90	1.58	1.28	1.21	1.27	1.37	1.53	1.73	1.93	2.14	2.29	2.35	2.28	2.04	1.78	1.80	2.02	2.10	2.00	1.97	1.98	2.00	2.11	2.19	2.14	2.11	2.39	2.97	3.13	2.78	2.26	1.89	1.58	1.40	1.35	1.38	1.38	1.30	1.24	1.33	1.58	1.94	2.18	2.19	2.18	2.33	2.44	2.31	2.09	1.87	1.80	2.20	2.67	2.76	2.60	2.44	2.29	2.12	1.98	2.00	2.06	2.08	2.07	1.99	1.80	1.64	1.63	1.65	1.60	1.55	1.54	1.53	1.52	1.53	1.58	1.58	1.62	1.85	2.14	2.31	2.55	2.87	3.08	3.13	3.00	2.66	2.34	2.09	1.84	1.81	2.02	2.18	2.50	3.05	3.15	2.68	2.18	1.90	1.72	1.62	1.59	1.52	1.48	1.53	1.53
3.07	2.91	2.59	2.36	2.27	2.27	2.27	2.21	2.05	1.95	1.95	1.95	1.90	1.82	1.80	1.80	1.76	1.70	1.72	1.81	1.73	1.45	1.28	1.30	1.38	1.51	1.69	1.83	1.90	1.97	2.03	2.03	1.99	1.84	1.76	1.90	2.02	1.98	1.90	1.92	1.92	1.94	2.04	2.06	2.09	2.25	2.60	2.95	2.94	2.55	2.10	1.70	1.46	1.40	1.43	1.46	1.37	1.20	1.14	1.30	1.73	2.22	2.43	2.39	2.32	2.33	2.37	2.29	2.15	2.00	2.07	2.48	2.73	2.59	2.30	2.08	1.97	1.91	1.89	2.01	2.17	2.22	2.16	2.02	1.86	1.80	1.75	1.66	1.60	1.64	1.65	1.61	1.62	1.72	1.82	1.85	1.92	2.13	2.31	2.45	2.75	3.05	3.05	2.81	2.64	2.38	2.07	1.92	1.67	1.61	1.82	2.09	2.61	3.17	3.15	2.61	2.10	1.82	1.64	1.52	1.48	1.44	1.50	1.59	1.59
3.03	2.92	2.54	2.29	2.22	2.28	2.25	2.11	1.96	1.93	1.96	1.92	1.81	1.73	1.75	1.75	1.68	1.61	1.62	1.64	1.54	1.38	1.34	1.40	1.46	1.55	1.67	1.73	1.76	1.79	1.80	1.82	1.87	1.86	1.85	1.92	1.96	1.91	1.88	1.92	1.90	1.88	1.91	1.92	2.03	2.44	2.79	2.87	2.68	2.36	1.93	1.55	1.40	1.49	1.63	1.62	1.36	1.10	1.11	1.40	1.95	2.48	2.67	2.60	2.49	2.41	2.35	2.27	2.17	2.16	2.35	2.61	2.54	2.18	1.91	1.85	1.89	1.86	1.86	2.05	2.31	2.40	2.28	2.10	2.07	2.06	1.91	1.71	1.63	1.67	1.69	1.65	1.71	1.89	1.97	1.93	1.95	2.00	2.04	2.25	2.77	3.05	2.79	2.41	2.46	2.29	1.89	1.66	1.48	1.49	1.85	2.34	2.86	3.21	3.03	2.45	2.01	1.77	1.62	1.50	1.43	1.46	1.53	1.58	1.58
3.11	2.92	2.45	2.13	2.02	2.09	2.17	2.10	2.02	2.02	2.03	1.94	1.80	1.72	1.74	1.71	1.58	1.49	1.49	1.46	1.39	1.35	1.39	1.44	1.48	1.51	1.57	1.64	1.72	1.77	1.76	1.76	1.83	1.89	1.88	1.92	1.97	1.95	1.92	1.91	1.90	1.88	1.90	1.95	2.16	2.69	2.92	2.74	2.45	2.15	1.80	1.53	1.49	1.69	1.86	1.74	1.31	1.07	1.23	1.66	2.25	2.76	2.89	2.76	2.64	2.52	2.38	2.25	2.19	2.32	2.53	2.50	2.14	1.81	1.76	1.89	1.98	1.88	1.86	2.11	2.46	2.56	2.40	2.28	2.29	2.21	1.97	1.71	1.61	1.66	1.71	1.70	1.77	1.94	1.90	1.73	1.68	1.69	1.71	2.08	2.82	3.10	2.61	2.17	2.37	2.22	1.68	1.40	1.39	1.66	2.21	2.61	3.01	3.17	2.86	2.28	1.92	1.75	1.64	1.57	1.53	1.54	1.52	1.48	1.48
3.22	2.92	2.38	2.01	1.80	1.92	2.11	2.15	2.10	2.14	2.13	2.02	1.91	1.83	1.79	1.71	1.52	1.40	1.36	1.34	1.32	1.34	1.38	1.42	1.45	1.47	1.54	1.64	1.73	1.81	1.83	1.78	1.79	1.85	1.84	1.91	2.06	2.09	1.97	1.90	1.92	2.01	2.11	2.26	2.51	2.84	2.86	2.55	2.27	2.07	1.79	1.61	1.68	1.90	2.03	1.80	1.30	1.20	1.57	2.12	2.68	3.03	3.00	2.80	2.64	2.49	2.34	2.21	2.19	2.34	2.44	2.24	1.79	1.66	1.81	2.01	2.03	1.87	1.84	2.17	2.59	2.71	2.61	2.52	2.41	2.18	1.90	1.66	1.59	1.64	1.72	1.72	1.77	1.81	1.63	1.47	1.52	1.61	1.73	2.30	3.12	3.17	2.41	2.00	2.21	2.03	1.48	1.29	1.52	1.99	2.39	2.72	3.08	3.12	2.71	2.13	1.81	1.76	1.73	1.69	1.66	1.59	1.47	1.37	1.37
3.15	2.86	2.26	1.82	1.70	1.88	2.13	2.25	2.29	2.33	2.31	2.20	2.09	1.97	1.83	1.67	1.49	1.35	1.28	1.27	1.28	1.27	1.30	1.37	1.43	1.50	1.61	1.71	1.77	1.85	1.87	1.79	1.77	1.84	1.87	1.99	2.21	2.26	2.07	1.98	2.11	2.32	2.51	2.64	2.71	2.72	2.54	2.30	2.19	2.08	1.85	1.76	1.89	2.12	2.14	1.78	1.39	1.53	2.11	2.69	3.01	3.06	2.88	2.66	2.50	2.34	2.22	2.10	2.08	2.21	2.26	2.10	1.79	1.79	2.03	2.17	2.08	1.87	1.88	2.28	2.72	2.87	2.79	2.63	2.34	2.04	1.80	1.61	1.56	1.61	1.70	1.71	1.68	1.57	1.42	1.45	1.67	1.85	2.15	2.82	3.32	3.06	2.15	1.76	1.95	1.84	1.37	1.35	1.73	2.06	2.38	2.87	3.18	3.02	2.54	2.10	1.80	1.78	1.83	1.77	1.66	1.55	1.41	1.31	1.31
3.04	2.74	2.06	1.61	1.65	2.02	2.38	2.54	2.56	2.54	2.45	2.35	2.21	2.00	1.76	1.58	1.44	1.31	1.22	1.20	1.19	1.15	1.18	1.33	1.48	1.60	1.71	1.81	1.84	1.84	1.83	1.80	1.82	1.93	2.02	2.17	2.42	2.46	2.30	2.26	2.45	2.67	2.74	2.65	2.47	2.25	2.01	1.97	2.15	2.14	2.02	2.02	2.19	2.32	2.19	1.74	1.59	2.04	2.65	2.97	2.96	2.81	2.61	2.45	2.34	2.21	2.11	2.00	1.91	1.99	2.16	2.12	2.03	2.10	2.27	2.31	2.18	2.05	2.14	2.50	2.86	2.95	2.78	2.50	2.15	1.86	1.68	1.59	1.60	1.65	1.69	1.69	1.61	1.49	1.52	1.76	2.02	2.22	2.60	3.15	3.23	2.70	1.92	1.56	1.68	1.63	1.35	1.45	1.74	2.03	2.60	3.18	3.21	2.72	2.28	2.06	1.88	1.83	1.88	1.77	1.57	1.48	1.35	1.24	1.24
2.94	2.58	1.84	1.49	1.75	2.30	2.73	2.85	2.77	2.61	2.43	2.26	2.10	1.86	1.64	1.48	1.36	1.25	1.17	1.12	1.06	1.00	1.10	1.37	1.59	1.70	1.80	1.92	1.94	1.86	1.83	1.94	2.11	2.23	2.31	2.46	2.62	2.63	2.55	2.53	2.61	2.66	2.54	2.28	2.00	1.74	1.63	1.75	2.09	2.24	2.25	2.31	2.41	2.38	2.13	1.80	1.94	2.51	2.83	2.83	2.67	2.51	2.35	2.27	2.24	2.16	2.05	1.91	1.77	1.86	2.12	2.21	2.22	2.27	2.31	2.26	2.19	2.19	2.30	2.53	2.74	2.78	2.58	2.28	1.98	1.79	1.73	1.78	1.80	1.76	1.70	1.68	1.64	1.63	1.80	2.02	2.14	2.31	2.77	3.13	2.87	2.19	1.70	1.39	1.37	1.38	1.38	1.59	1.83	2.28	3.00	3.31	3.01	2.31	2.02	2.03	2.00	1.90	1.86	1.73	1.53	1.48	1.31	1.14	1.14
2.67	2.34	1.79	1.65	2.10	2.75	3.04	2.92	2.68	2.43	2.21	2.04	1.87	1.68	1.52	1.38	1.25	1.15	1.09	1.02	0.92	0.92	1.13	1.48	1.74	1.83	1.93	2.08	2.09	1.98	2.04	2.32	2.55	2.60	2.59	2.61	2.68	2.72	2.64	2.50	2.42	2.33	2.11	1.82	1.58	1.47	1.53	1.77	2.14	2.44	2.58	2.61	2.53	2.33	2.10	2.03	2.34	2.65	2.70	2.53	2.38	2.24	2.10	2.06	2.15	2.13	1.99	1.81	1.70	1.81	2.07	2.26	2.37	2.35	2.25	2.15	2.09	2.16	2.27	2.36	2.52	2.53	2.36	2.14	1.99	1.90	1.91	1.96	1.94	1.79	1.67	1.66	1.68	1.73	1.87	1.91	1.92	2.21	2.86	3.00	2.38	1.81	1.44	1.21	1.15	1.23	1.44	1.84	2.17	2.65	3.27	3.32	2.71	2.05	1.87	2.03	2.10	1.97	1.82	1.70	1.56	1.53	1.30	1.06	1.06
2.34	2.20	1.97	2.10	2.67	3.10	3.06	2.74	2.42	2.16	1.98	1.85	1.69	1.54	1.39	1.25	1.12	1.04	1.01	0.95	0.90	1.02	1.35	1.69	1.93	2.05	2.16	2.32	2.37	2.32	2.47	2.71	2.78	2.65	2.49	2.39	2.53	2.64	2.50	2.22	2.04	1.91	1.69	1.46	1.38	1.42	1.62	2.01	2.42	2.77	2.85	2.67	2.44	2.24	2.12	2.21	2.43	2.51	2.43	2.28	2.15	2.01	1.85	1.88	2.02	2.04	1.94	1.84	1.75	1.80	2.06	2.29	2.39	2.34	2.18	2.03	1.94	2.03	2.09	2.10	2.34	2.49	2.37	2.16	2.04	1.96	1.93	1.87	1.77	1.63	1.55	1.59	1.66	1.69	1.68	1.65	1.79	2.37	2.97	2.82	2.00	1.43	1.18	1.11	1.12	1.25	1.59	2.18	2.62	2.96	3.36	3.19	2.45	1.94	1.89	2.09	2.18	2.01	1.81	1.71	1.60	1.54	1.30	1.08	1.08
2.36	2.35	2.37	2.61	2.94	3.03	2.80	2.48	2.17	1.98	1.87	1.73	1.58	1.43	1.28	1.13	1.02	0.98	0.98	0.99	1.07	1.32	1.64	1.91	2.12	2.30	2.46	2.63	2.69	2.67	2.73	2.76	2.61	2.35	2.09	2.03	2.34	2.46	2.24	1.90	1.67	1.56	1.41	1.36	1.41	1.54	1.92	2.42	2.83	3.02	2.88	2.58	2.29	2.14	2.13	2.21	2.28	2.25	2.18	2.10	1.99	1.82	1.73	1.82	1.96	1.98	1.94	1.93	1.90	1.92	2.06	2.27	2.38	2.31	2.13	1.96	1.92	2.05	2.07	2.01	2.23	2.49	2.46	2.25	2.02	1.85	1.76	1.66	1.54	1.45	1.43	1.50	1.61	1.61	1.57	1.66	2.00	2.61	2.93	2.50	1.62	1.07	1.01	1.15	1.29	1.47	1.87	2.49	2.88	3.05	3.14	2.91	2.26	2.00	2.06	2.19	2.20	2.04	1.84	1.72	1.59	1.45	1.28	1.15	1.15
2.54	2.51	2.54	2.70	2.81	2.83	2.52	2.28	2.03	1.90	1.81	1.66	1.50	1.34	1.19	1.07	1.00	1.00	1.04	1.12	1.27	1.48	1.73	1.98	2.21	2.47	2.67	2.78	2.77	2.69	2.59	2.42	2.16	1.94	1.80	1.91	2.17	2.17	1.89	1.63	1.46	1.40	1.38	1.44	1.54	1.82	2.36	2.88	3.11	3.01	2.69	2.34	2.13	2.04	2.09	2.16	2.13	2.06	2.00	1.95	1.87	1.74	1.74	1.85	1.93	1.94	2.00	2.12	2.13	2.08	2.11	2.19	2.28	2.24	2.04	1.89	1.97	2.15	2.10	1.97	2.17	2.41	2.51	2.37	2.09	1.82	1.70	1.64	1.54	1.45	1.41	1.44	1.56	1.61	1.66	1.88	2.22	2.66	2.74	2.15	1.28	0.83	1.00	1.35	1.58	1.78	2.12	2.62	2.89	2.89	2.90	2.75	2.35	2.25	2.28	2.26	2.20	2.07	1.86	1.69	1.51	1.30	1.23	1.24	1.24
2.68	2.60	2.52	2.61	2.63	2.52	2.36	2.15	1.96	1.86	1.76	1.60	1.43	1.27	1.15	1.07	1.05	1.05	1.09	1.18	1.31	1.45	1.66	1.93	2.28	2.60	2.77	2.75	2.62	2.43	2.21	1.96	1.73	1.64	1.67	1.83	1.95	1.87	1.66	1.49	1.39	1.39	1.50	1.64	1.83	2.26	2.84	3.19	3.13	2.82	2.47	2.20	2.04	1.96	2.04	2.13	2.09	1.97	1.86	1.81	1.76	1.76	1.85	1.98	2.02	2.03	2.17	2.27	2.21	2.14	2.12	2.14	2.17	2.16	2.04	1.97	2.10	2.22	2.08	1.95	2.09	2.24	2.43	2.48	2.28	1.99	1.80	1.68	1.59	1.49	1.40	1.40	1.52	1.64	1.74	1.91	2.23	2.58	2.49	1.83	1.07	0.79	1.18	1.60	1.79	1.93	2.19	2.58	2.71	2.58	2.75	2.88	2.71	2.58	2.48	2.39	2.30	2.14	1.84	1.55	1.32	1.11	1.21	1.41	1.41
2.80	2.63	2.50	2.58	2.77	2.48	2.32	2.11	1.96	1.86	1.72	1.57	1.41	1.27	1.16	1.10	1.09	1.07	1.09	1.17	1.31	1.50	1.77	2.11	2.48	2.75	2.79	2.61	2.37	2.13	1.85	1.62	1.48	1.49	1.60	1.72	1.75	1.71	1.59	1.46	1.39	1.47	1.70	1.98	2.28	2.75	3.17	3.21	2.92	2.58	2.31	2.10	1.93	1.86	1.97	2.09	2.06	1.90	1.78	1.72	1.71	1.81	1.97	2.12	2.17	2.23	2.33	2.29	2.17	2.15	2.17	2.11	2.06	2.09	2.09	2.08	2.17	2.22	2.07	1.97	2.03	2.09	2.22	2.46	2.43	2.20	1.91	1.69	1.55	1.45	1.38	1.37	1.50	1.66	1.74	1.86	2.20	2.44	2.19	1.48	0.90	0.91	1.40	1.69	1.75	1.88	2.14	2.39	2.42	2.42	2.81	3.13	3.04	2.77	2.58	2.43	2.24	1.99	1.71	1.33	1.04	0.93	1.31	1.72	1.72
2.83	2.67	2.51	2.57	2.60	2.51	2.33	2.13	1.99	1.89	1.74	1.59	1.44	1.32	1.23	1.15	1.11	1.08	1.12	1.25	1.49	1.80	2.15	2.45	2.65	2.73	2.64	2.38	2.08	1.81	1.55	1.41	1.41	1.50	1.60	1.65	1.62	1.62	1.62	1.54	1.48	1.63	2.02	2.46	2.80	3.10	3.01	2.98	2.64	2.37	2.16	1.99	1.84	1.77	1.88	2.01	1.94	1.81	1.76	1.74	1.79	1.97	2.23	2.37	2.40	2.40	2.35	2.25	2.21	2.23	2.17	2.04	1.98	2.09	2.16	2.12	2.16	2.20	2.15	2.08	2.05	2.04	2.11	2.33	2.48	2.34	2.04	1.74	1.55	1.46	1.39	1.37	1.49	1.66	1.72	1.83	2.16	2.25	1.80	1.14	0.90	1.11	1.48	1.60	1.63	1.80	2.05	2.20	2.31	2.65	3.24	3.43	3.13	2.75	2.49	2.27	1.97	1.68	1.43	1.07	0.84	0.90	1.54	2.01	2.01
2.89	2.74	2.54	2.53	2.58	2.56	2.40	2.17	2.00	1.90	1.78	1.61	1.49	1.40	1.30	1.20	1.14	1.14	1.24	1.48	1.83	2.17	2.40	2.51	2.52	2.47	2.35	2.08	1.74	1.48	1.35	1.37	1.46	1.56	1.63	1.65	1.61	1.62	1.72	1.72	1.68	1.88	2.44	2.97	3.19	3.17	2.98	2.68	2.42	2.22	2.07	1.97	1.85	1.77	1.83	1.84	1.73	1.74	1.77	1.86	2.09	2.40	2.59	2.58	2.51	2.46	2.34	2.25	2.28	2.26	2.07	1.92	2.01	2.21	2.23	2.12	2.16	2.27	2.28	2.21	2.12	2.07	2.10	2.22	2.38	2.39	2.19	1.87	1.62	1.49	1.42	1.39	1.48	1.63	1.69	1.80	2.04	1.93	1.31	0.96	1.01	1.26	1.44	1.53	1.60	1.78	1.98	2.20	2.62	3.28	3.73	3.56	2.99	2.56	2.31	2.04	1.73	1.43	1.18	0.91	0.83	1.16	1.80	2.12	2.12
2.99	2.81	2.56	2.46	2.46	2.59	2.51	2.27	2.03	1.89	1.76	1.60	1.50	1.41	1.31	1.20	1.14	1.20	1.42	1.75	2.08	2.26	2.27	2.20	2.14	2.09	2.01	1.79	1.47	1.30	1.30	1.43	1.58	1.65	1.68	1.70	1.70	1.71	1.84	1.90	1.92	2.24	2.92	3.34	3.31	3.00	2.66	2.41	2.25	2.16	2.12	2.06	1.91	1.80	1.72	1.61	1.58	1.74	1.88	2.20	2.56	2.70	2.63	3.06	2.39	2.35	2.29	2.29	2.24	2.11	1.95	1.91	2.11	2.27	2.22	2.16	2.29	2.43	2.42	2.29	2.15	2.07	2.07	2.13	2.24	2.35	2.28	2.04	1.74	1.56	1.46	1.40	1.45	1.57	1.64	1.74	1.84	1.54	1.02	0.89	1.11	1.33	1.43	1.51	1.63	1.81	2.09	2.59	3.32	3.84	3.86	3.37	2.56	2.31	2.21	1.95	1.61	1.28	1.03	0.89	1.02	1.53	1.89	2.02	2.02
3.05	2.88	2.62	2.42	2.37	2.51	2.57	2.38	2.09	1.89	1.72	1.58	1.48	1.37	1.25	1.15	1.12	1.26	1.58	1.92	2.08	2.05	1.93	1.83	1.79	1.78	1.73	1.58	1.35	1.25	1.37	1.57	1.72	1.79	1.78	1.81	1.88	1.89	1.95	2.08	2.25	2.70	3.27	3.46	3.17	2.71	2.34	2.15	2.12	2.17	2.22	2.19	1.99	1.81	1.63	1.50	1.60	1.83	2.08	2.59	2.84	2.73	2.44	2.23	2.16	2.19	2.48	2.17	2.11	2.02	2.00	2.08	2.27	2.30	2.21	2.27	2.47	2.56	2.44	2.25	2.08	2.00	1.98	2.06	2.17	2.26	2.28	2.15	1.89	1.66	1.52	1.43	1.44	1.52	1.58	1.65	1.61	1.25	0.90	0.90	1.13	1.34	1.45	1.54	1.70	2.00	2.52	3.28	3.90	3.98	3.59	2.80	2.16	2.11	2.13	1.90	1.51	1.11	0.89	0.92	1.21	1.61	1.82	1.85	1.85
3.08	2.93	2.61	2.41	2.34	2.42	2.53	2.43	2.17	1.93	1.74	1.61	1.50	1.36	1.22	1.10	1.12	1.34	1.69	1.90	1.88	1.73	1.60	1.53	1.53	1.57	1.57	1.47	1.34	1.36	1.57	1.77	1.88	1.91	1.90	1.96	2.03	2.01	2.06	2.25	2.61	3.06	3.39	3.30	2.89	2.42	2.13	1.97	1.99	2.17	2.27	2.25	2.06	1.81	1.59	1.50	1.64	1.91	2.30	2.85	2.94	2.57	2.18	2.02	2.02	2.13	2.15	2.07	2.01	2.01	2.05	2.12	2.23	2.29	2.31	2.43	2.52	2.46	2.27	2.04	1.90	1.88	1.93	2.01	2.10	2.18	2.23	2.20	2.00	1.78	1.60	1.51	1.49	1.48	1.50	1.54	1.41	1.11	0.93	1.00	1.19	1.41	1.58	1.72	1.98	2.43	3.13	3.83	4.04	3.72	3.03	2.32	1.99	2.03	2.06	1.84	1.41	0.96	0.78	0.91	1.25	1.53	1.77	1.90	1.90
3.18	2.96	2.60	2.40	2.33	2.37	2.44	2.39	2.20	1.99	1.79	1.64	1.52	1.36	1.22	1.10	1.16	1.43	1.68	1.70	1.55	1.42	1.36	1.34	1.38	1.50	1.58	1.53	1.49	1.58	1.79	1.92	1.94	1.93	1.95	2.03	2.04	2.04	2.13	2.40	2.86	3.24	3.28	2.99	2.62	2.28	2.04	1.91	1.92	2.07	2.28	2.32	2.14	1.77	1.53	1.43	1.59	1.90	2.45	2.97	2.94	2.44	2.04	1.90	1.95	2.15	2.23	2.08	1.97	1.96	1.93	1.98	2.13	2.24	2.33	2.39	2.34	2.19	2.01	1.87	1.82	1.83	1.88	1.94	2.04	2.11	2.15	2.16	2.08	1.90	1.72	1.60	1.51	1.40	1.41	1.45	1.32	1.12	1.09	1.19	1.36	1.61	1.84	2.07	2.40	2.90	3.52	3.92	3.79	3.20	2.58	2.21	2.07	2.07	2.01	1.73	1.32	0.92	0.76	0.94	1.32	1.56	1.88	2.14	2.14
3.26	3.04	2.68	2.47	2.36	2.33	2.34	2.29	2.19	2.03	1.85	1.67	1.51	1.34	1.20	1.11	1.20	1.42	1.50	1.36	1.23	1.19	1.24	1.28	1.34	1.51	1.67	1.71	1.71	1.76	1.89	1.98	1.96	1.89	1.90	1.95	1.99	2.02	2.17	2.55	3.03	3.25	3.08	2.69	2.37	2.14	1.95	1.85	1.88	1.98	2.18	2.40	2.21	1.73	1.38	1.26	1.44	1.80	2.50	3.05	2.94	2.38	1.99	1.89	1.99	2.18	2.21	2.06	1.99	1.94	1.83	1.86	2.09	2.26	2.24	2.14	2.05	1.98	1.93	1.88	1.82	1.75	1.77	1.93	2.06	2.09	2.10	2.07	2.02	1.95	1.82	1.68	1.49	1.32	1.35	1.42	1.35	1.25	1.27	1.38	1.55	1.77	2.04	2.35	2.71	3.13	3.55	3.66	3.40	2.89	2.51	2.32	2.19	2.11	1.99	1.68	1.25	0.91	0.82	1.06	1.41	1.64	2.00	2.26	2.26
3.25	3.09	2.83	2.66	2.46	2.27	2.14	2.11	2.07	2.00	1.88	1.72	1.52	1.32	1.18	1.10	1.17	1.29	1.24	1.08	1.01	1.07	1.19	1.28	1.35	1.56	1.78	1.92	1.95	1.92	1.99	2.04	1.98	1.87	1.81	1.85	1.95	2.02	2.21	2.68	3.13	3.18	2.88	2.45	2.11	1.97	1.88	1.81	1.82	1.92	2.11	2.37	2.27	1.72	1.23	1.11	1.28	1.70	2.48	3.07	3.01	2.45	2.09	1.96	2.03	2.17	2.13	1.95	1.97	1.98	1.77	1.75	2.07	2.31	2.19	2.00	1.97	2.00	2.00	1.94	1.72	1.59	1.72	1.98	2.13	2.13	2.08	2.02	1.96	1.91	1.86	1.73	1.52	1.35	1.36	1.43	1.38	1.32	1.36	1.46	1.60	1.78	2.08	2.48	2.81	3.10	3.34	3.38	3.21	2.92	2.59	2.34	2.18	2.05	1.86	1.53	1.13	0.84	0.83	1.08	1.39	1.67	2.06	2.31	2.31
3.16	3.11	2.96	2.77	2.52	2.23	2.04	1.98	1.93	1.91	1.87	1.76	1.56	1.33	1.17	1.06	1.07	1.12	1.02	0.89	0.89	1.00	1.20	1.33	1.45	1.65	1.89	2.09	2.20	2.18	2.14	2.10	1.98	1.83	1.75	1.82	1.93	2.04	2.28	2.79	3.18	3.10	2.70	2.22	1.99	1.98	1.98	1.93	1.92	1.92	2.04	2.30	2.25	1.76	1.18	1.07	1.25	1.68	2.47	3.11	3.08	2.61	2.24	2.05	2.03	2.00	1.92	1.83	1.92	1.99	1.78	1.68	2.03	2.28	2.05	1.90	2.06	2.13	2.06	1.85	1.53	1.51	1.83	2.15	2.25	2.18	2.10	2.01	1.92	1.89	1.86	1.77	1.62	1.47	1.43	1.45	1.40	1.37	1.42	1.51	1.64	1.84	2.12	2.44	2.72	2.92	3.06	3.21	3.25	3.03	2.55	2.22	2.06	1.91	1.67	1.30	0.93	0.75	0.84	1.12	1.45	1.75	2.15	2.45	2.45
3.21	3.17	3.00	2.74	2.49	2.20	2.01	1.90	1.83	1.81	1.79	1.75	1.61	1.37	1.14	0.99	0.98	0.98	0.88	0.81	0.88	1.08	1.30	1.46	1.59	1.76	1.98	2.24	2.41	2.39	2.23	2.09	1.92	1.74	1.71	1.84	1.98	2.11	2.42	2.91	3.18	3.00	2.56	2.16	2.05	2.12	2.21	2.23	2.15	2.01	1.96	2.16	2.22	1.83	1.22	1.10	1.26	1.67	2.45	3.12	3.11	2.72	2.29	2.01	1.90	1.81	1.78	1.78	1.92	2.03	1.82	1.66	2.00	2.21	1.93	1.81	2.08	2.23	2.11	1.79	1.52	1.64	2.07	2.39	2.37	2.17	2.00	1.94	1.93	1.93	1.92	1.87	1.78	1.63	1.51	1.47	1.44	1.44	1.49	1.58	1.68	1.79	1.99	2.26	2.52	2.68	2.76	3.11	3.44	3.20	2.56	2.19	2.01	1.81	1.56	1.22	0.90	0.83	1.05	1.39	1.71	1.99	2.31	2.48	2.48
3.33	3.22	2.89	2.56	2.31	2.08	1.93	1.81	1.73	1.69	1.68	1.69	1.62	1.41	1.13	0.95	0.92	0.90	0.85	0.88	1.05	1.30	1.49	1.63	1.71	1.87	2.12	2.38	2.55	2.50	2.27	2.05	1.85	1.68	1.68	1.85	2.04	2.26	2.65	3.02	3.10	2.86	2.51	2.31	2.34	2.41	2.45	2.40	2.26	2.02	1.89	1.97	2.14	1.85	1.28	1.12	1.27	1.68	2.45	3.16	3.17	2.73	2.25	1.93	1.78	1.67	1.68	1.78	1.93	2.07	1.87	1.63	1.96	2.18	1.93	1.79	1.99	2.22	2.17	1.89	1.68	1.88	2.27	2.46	2.30	1.96	1.79	1.83	1.94	2.03	2.03	1.99	1.90	1.73	1.58	1.50	1.47	1.46	1.45	1.46	1.50	1.51	1.71	2.03	2.32	2.41	2.56	3.19	3.63	3.34	2.62	2.22	2.00	1.81	1.58	1.25	0.99	1.05	1.34	1.62	1.87	2.12	2.26	2.30	2.30
3.43	3.22	2.69	2.34	2.12	1.93	1.81	1.68	1.57	1.54	1.58	1.61	1.57	1.42	1.16	0.95	0.91	0.91	0.94	1.07	1.29	1.48	1.60	1.69	1.77	1.95	2.19	2.42	2.59	2.56	2.31	2.02	1.82	1.70	1.72	1.92	2.20	2.52	2.89	3.12	3.00	2.71	2.58	2.54	2.57	2.57	2.50	2.33	2.11	1.90	1.78	1.81	1.98	1.82	1.30	1.13	1.30	1.75	2.55	3.22	3.18	2.70	2.19	1.89	1.74	1.66	1.67	1.76	1.89	2.05	1.90	1.63	1.90	2.18	1.97	1.76	1.89	2.14	2.23	2.02	1.86	2.05	2.29	2.28	2.01	1.67	1.64	1.85	2.07	2.16	2.14	2.06	1.96	1.80	1.62	1.50	1.45	1.37	1.27	1.21	1.18	1.24	1.53	1.92	2.19	2.33	2.71	3.52	3.80	3.36	2.62	2.18	1.96	1.78	1.54	1.21	1.03	1.13	1.35	1.54	1.78	2.02	2.11	2.12	2.12
3.53	3.23	2.56	2.17	1.95	1.83	1.73	1.57	1.45	1.44	1.52	1.54	1.49	1.37	1.16	0.97	0.94	1.01	1.09	1.24	1.38	1.45	1.49	1.56	1.69	1.91	2.13	2.35	2.53	2.52	2.31	2.04	1.81	1.72	1.81	2.10	2.47	2.79	3.11	3.20	2.93	2.64	2.29	2.57	2.54	2.47	2.31	2.08	1.91	1.75	1.67	1.70	1.83	1.75	1.31	1.16	1.38	1.88	2.67	3.25	3.17	2.63	2.15	1.87	1.70	1.64	1.64	1.71	1.83	1.98	1.88	1.65	1.85	2.22	2.05	1.73	1.77	2.10	2.29	2.14	1.96	2.07	2.22	2.13	1.82	1.64	1.80	2.14	2.34	2.34	2.26	2.19	2.08	1.84	1.59	1.44	1.38	1.27	1.10	0.99	1.01	1.17	1.53	1.93	2.21	2.50	3.12	3.79	3.85	3.25	2.49	2.10	1.93	1.74	1.47	1.15	0.99	1.04	1.22	1.44	1.67	1.86	2.06	2.19	2.19
3.61	3.25	2.52	2.08	1.89	1.81	1.70	1.53	1.43	1.45	1.52	1.53	1.45	1.30	1.12	0.99	1.03	1.15	1.21	1.26	1.28	1.30	1.33	1.42	1.61	1.89	2.10	2.28	2.44	2.44	2.30	2.05	1.81	1.77	2.02	2.48	2.85	3.09	3.24	3.16	2.83	2.53	2.52	2.53	2.43	2.26	2.10	1.96	1.87	1.74	1.68	1.68	1.73	1.66	1.33	1.22	1.51	2.05	2.70	3.17	3.09	2.58	2.10	1.86	1.71	1.61	1.61	1.69	1.80	1.92	1.86	1.70	1.87	2.23	2.12	1.73	1.68	2.03	2.35	2.23	1.87	1.88	2.16	2.15	1.99	2.00	2.26	2.47	2.49	2.36	2.25	2.15	2.00	1.72	1.45	1.33	1.29	1.17	1.00	0.88	0.97	1.29	1.73	2.18	2.50	2.85	3.42	3.81	3.66	3.06	2.37	2.05	1.93	1.75	1.45	1.14	1.00	1.03	1.23	1.49	1.74	1.92	2.14	2.31	2.31
3.62	3.25	2.52	2.07	1.92	1.85	1.73	1.58	1.52	1.57	1.62	1.59	1.44	1.21	1.03	1.00	1.13	1.26	1.26	1.17	1.16	1.22	1.33	1.48	1.70	1.94	2.11	2.23	2.33	2.35	2.30	2.13	1.97	2.09	2.51	2.95	3.16	3.18	3.14	2.89	2.56	2.27	2.28	2.47	2.43	2.25	2.02	1.92	1.88	1.86	1.80	1.71	1.66	1.56	1.33	1.30	1.61	2.08	2.59	3.00	2.99	2.58	2.10	1.91	1.79	1.68	1.68	1.74	1.81	1.87	1.84	1.77	1.93	2.23	2.16	1.76	1.64	1.96	2.36	2.24	1.75	1.65	1.96	2.16	2.27	2.44	2.54	2.52	2.35	2.18	2.07	1.92	1.72	1.50	1.28	1.19	1.17	1.05	0.92	0.92	1.16	1.63	2.18	2.60	2.80	3.00	3.43	3.66	3.42	2.89	2.35	2.06	1.95	1.78	1.45	1.15	1.04	1.11	1.32	1.65	1.96	2.10	2.18	2.24	2.24
3.53	3.21	2.55	2.13	1.99	1.91	1.78	1.66	1.64	1.71	1.73	1.62	1.35	1.05	0.94	1.04	1.22	1.33	1.28	1.14	1.13	1.27	1.47	1.65	1.81	2.01	2.13	2.18	2.24	2.24	2.27	2.29	2.36	2.61	2.95	3.14	3.14	3.03	2.87	2.61	2.25	2.01	2.01	2.28	2.50	2.34	2.05	1.89	1.86	1.86	1.81	1.68	1.57	1.45	1.30	1.32	1.62	1.92	2.30	2.79	2.93	2.67	2.21	1.99	1.91	1.83	1.81	1.82	1.81	1.84	1.86	1.85	1.98	2.22	2.18	1.81	1.64	1.98	2.37	2.21	1.68	1.53	1.77	2.12	2.52	2.68	2.55	2.31	2.13	2.01	1.89	1.71	1.51	1.31	1.12	1.05	1.02	0.92	0.88	1.04	1.49	2.06	2.47	2.67	2.70	2.75	3.24	3.54	3.34	2.86	2.37	2.09	1.93	1.74	1.42	1.17	1.08	1.17	1.42	1.83	2.10	2.10	2.05	2.06	2.06
3.41	3.14	2.57	2.20	2.05	1.96	1.84	1.75	1.78	1.82	1.76	1.55	1.15	0.88	0.92	1.11	1.27	1.37	1.33	1.22	1.24	1.46	1.72	1.87	1.96	2.07	2.15	2.17	2.19	2.16	2.29	2.42	2.77	2.95	2.97	2.92	2.83	2.70	2.55	2.35	2.08	1.81	1.72	2.04	2.46	2.47	2.20	1.92	1.85	1.79	1.68	1.52	1.41	1.30	1.23	1.33	1.58	1.75	1.96	2.54	2.89	2.79	2.42	2.17	2.04	1.93	1.89	1.86	1.85	1.86	1.87	1.87	1.99	2.18	2.17	1.84	1.73	2.05	2.36	2.16	1.64	1.53	1.82	2.22	2.67	2.82	2.57	2.21	1.99	1.89	1.78	1.62	1.41	1.16	0.98	0.94	0.91	0.86	0.94	1.24	1.72	2.14	2.30	2.35	2.31	2.33	3.03	3.58	3.39	2.89	2.43	2.13	1.93	1.70	1.44	1.20	1.12	1.22	1.53	1.88	2.01	1.89	1.91	1.97	1.97
3.34	3.09	2.58	2.23	2.09	2.02	1.94	1.90	1.91	1.86	1.71	1.41	0.95	0.78	0.94	1.16	1.33	1.43	1.44	1.41	1.49	1.72	1.96	2.05	2.07	2.12	2.17	2.19	2.21	2.16	2.45	2.86	3.17	2.90	2.67	2.60	2.54	2.44	2.30	2.19	2.03	1.74	1.52	1.76	2.35	2.60	2.36	1.96	1.81	1.69	1.56	1.43	1.31	1.20	1.20	1.38	1.58	1.68	1.84	2.34	2.84	2.89	2.61	2.35	2.08	1.92	1.95	1.97	1.93	1.84	1.78	1.81	1.97	2.13	2.12	1.93	1.88	2.14	2.33	2.11	1.70	1.68	2.01	2.31	2.65	2.89	2.67	2.19	1.89	1.77	1.65	1.51	1.31	1.02	0.89	0.87	0.83	0.83	0.98	1.24	1.58	1.89	1.97	2.04	2.06	2.21	3.07	3.74	3.50	2.91	2.49	2.18	1.95	1.73	1.47	1.23	1.13	1.23	1.49	1.69	1.70	1.69	1.90	2.08	2.08
3.30	3.08	2.62	2.30	2.18	2.13	2.07	2.02	1.95	1.80	1.59	1.21	0.79	0.70	0.95	1.22	1.42	1.54	1.61	1.65	1.73	1.88	2.02	2.04	2.05	2.10	2.14	2.19	2.24	2.29	2.79	3.14	3.23	2.67	2.42	2.43	2.38	2.24	2.06	1.98	1.91	1.69	1.41	1.53	2.18	2.64	2.47	2.02	1.77	1.68	1.59	1.49	1.34	1.20	1.24	1.45	1.62	1.69	1.81	2.20	2.77	2.95	2.69	2.34	2.04	1.99	2.05	2.00	1.83	1.66	1.65	1.79	1.96	2.06	2.08	2.05	2.08	2.22	2.31	2.13	1.82	1.84	2.08	2.27	2.54	2.83	2.71	2.24	1.87	1.68	1.52	1.36	1.16	0.90	0.81	0.79	0.73	0.76	0.95	1.22	1.51	1.71	1.82	1.93	2.03	2.45	3.44	3.92	3.52	2.84	2.46	2.21	1.95	1.70	1.43	1.22	1.13	1.20	1.38	1.49	1.52	1.68	2.06	2.30	2.30
3.26	3.06	2.66	2.41	2.27	2.20	2.12	2.02	1.87	1.66	1.39	0.99	0.65	0.69	1.06	1.39	1.57	1.69	1.79	1.82	1.83	1.87	1.91	1.91	1.96	2.05	2.10	2.18	2.34	2.59	3.12	3.16	3.09	2.54	2.31	2.35	2.30	2.12	1.89	1.78	1.72	1.57	1.33	1.38	2.03	2.64	2.62	2.18	1.88	1.73	1.62	1.51	1.40	1.31	1.37	1.53	1.62	1.64	1.71	2.03	2.64	2.95	2.72	2.34	2.19	2.14	2.03	1.82	1.61	1.56	1.67	1.86	2.01	2.06	2.11	2.20	2.30	2.33	2.29	2.16	1.96	1.90	2.04	2.23	2.48	2.71	2.68	2.35	1.94	1.64	1.43	1.25	1.02	0.84	0.76	0.68	0.61	0.74	1.02	1.30	1.52	1.70	1.85	1.99	2.22	2.96	3.84	3.98	3.40	2.66	2.35	2.21	1.99	1.71	1.46	1.26	1.17	1.19	1.31	1.42	1.54	1.81	2.21	2.44	2.44
3.27	3.07	2.69	2.44	2.27	2.16	2.06	1.93	1.74	1.49	1.19	0.78	0.62	0.85	1.29	1.57	1.71	1.82	1.90	1.87	1.82	1.80	1.81	1.83	1.92	2.02	2.09	2.25	2.57	2.91	3.20	3.27	2.97	2.52	2.21	2.17	2.17	2.06	1.82	1.61	1.45	1.34	1.26	1.40	1.99	2.64	2.73	2.35	1.99	1.72	1.55	1.50	1.56	1.56	1.57	1.57	1.56	1.55	1.60	1.88	2.48	2.91	2.79	2.45	2.29	2.13	1.84	1.64	1.59	1.67	1.84	2.00	2.10	2.14	2.21	2.33	2.42	2.40	2.35	2.26	2.10	1.96	2.02	2.26	2.45	2.56	2.58	2.41	2.07	1.72	1.46	1.16	0.90	0.81	0.72	0.57	0.57	0.85	1.19	1.43	1.58	1.77	1.99	2.17	2.59	3.50	4.12	3.88	3.13	2.53	2.26	2.17	2.03	1.80	1.57	1.35	1.20	1.17	1.27	1.45	1.69	2.01	2.26	2.34	2.34
3.35	3.14	2.72	2.41	2.23	2.11	2.00	1.84	1.63	1.38	0.99	0.65	0.68	1.05	1.43	1.65	1.76	1.86	1.89	1.84	1.79	1.76	1.77	1.82	1.91	2.02	2.12	2.39	2.82	3.07	3.07	3.02	2.96	2.60	2.14	1.98	1.99	2.00	1.84	1.54	1.24	1.17	1.29	1.54	2.01	2.60	2.77	2.40	1.89	1.58	1.51	1.65	1.88	1.94	1.78	1.59	1.52	1.51	1.56	1.75	2.30	2.85	2.87	2.55	2.30	2.04	1.80	1.68	1.72	1.86	2.03	2.16	2.22	2.27	2.34	2.46	2.52	2.48	2.44	2.40	2.21	2.03	2.04	2.25	2.40	2.43	2.46	2.43	2.18	1.78	1.40	1.00	0.78	0.75	0.64	0.56	0.72	1.10	1.41	1.56	1.65	1.87	2.20	2.51	3.11	3.96	4.17	3.61	2.88	2.47	2.19	2.06	2.05	1.91	1.64	1.35	1.14	1.08	1.19	1.47	1.82	2.13	2.20	2.18	2.18
3.41	3.20	2.68	2.34	2.21	2.09	1.95	1.77	1.56	1.27	0.81	0.59	0.76	1.17	1.48	1.64	1.76	1.83	1.86	1.81	1.77	1.74	1.75	1.80	1.89	2.00	2.13	2.52	3.02	3.09	2.85	2.81	2.92	2.64	2.08	1.77	1.79	1.88	1.81	1.49	1.13	1.11	1.34	1.58	1.92	2.51	2.77	2.42	1.84	1.58	1.67	2.05	2.33	2.22	1.91	1.61	1.49	1.49	1.52	1.65	2.15	2.80	2.94	2.64	2.38	2.21	2.09	2.02	2.05	2.20	2.33	2.40	2.43	2.46	2.54	2.64	2.67	2.60	2.52	2.41	2.22	2.05	2.07	2.18	2.30	2.33	2.35	2.40	2.23	1.76	1.21	0.85	0.72	0.70	0.65	0.74	1.06	1.39	1.57	1.60	1.68	2.04	2.56	3.07	3.66	4.04	3.89	3.20	2.66	2.39	2.10	1.92	2.00	1.96	1.63	1.24	1.01	0.96	1.12	1.45	1.82	2.05	2.12	2.14	2.14
3.41	3.18	2.59	2.26	2.18	2.08	1.91	1.72	1.50	1.13	0.67	0.58	0.91	1.33	1.56	1.69	1.76	1.81	1.83	1.80	1.76	1.73	1.73	1.79	1.86	1.95	2.11	2.64	3.20	3.08	2.69	2.69	2.83	2.62	2.10	1.70	1.63	1.68	1.63	1.35	1.10	1.13	1.35	1.53	1.80	2.39	2.80	2.56	1.98	1.79	2.11	2.56	2.62	2.28	1.85	1.54	1.41	1.44	1.50	1.63	2.05	2.73	2.97	2.82	2.62	2.48	2.36	2.30	2.35	2.47	2.55	2.58	2.58	2.60	2.63	2.66	2.64	2.57	2.44	2.29	2.15	2.06	2.07	2.11	2.17	2.21	2.23	2.33	2.21	1.70	1.07	0.82	0.76	0.76	0.85	1.07	1.28	1.41	1.45	1.45	1.69	2.29	3.01	3.58	3.86	3.79	3.40	2.82	2.48	2.30	2.04	1.83	1.88	1.95	1.64	1.15	0.90	0.87	1.10	1.43	1.73	1.95	2.17	2.35	2.35
3.44	3.17	2.54	2.20	2.14	2.05	1.88	1.69	1.44	1.00	0.66	0.73	1.18	1.59	1.73	1.76	1.77	1.78	1.78	1.77	1.75	1.73	1.73	1.78	1.82	1.88	2.15	2.87	3.35	3.05	2.53	2.58	2.72	2.56	2.19	1.76	1.51	1.41	1.35	1.22	1.12	1.20	1.41	1.57	1.81	2.33	2.84	2.78	2.30	2.25	2.64	2.82	2.59	2.06	1.65	1.41	1.32	1.40	1.48	1.59	1.94	2.60	3.00	2.95	2.74	2.56	2.48	2.34	2.34	2.40	2.45	2.48	2.48	2.48	2.48	2.45	2.39	2.31	2.18	2.07	2.02	2.04	2.04	2.04	2.04	2.05	2.12	2.22	2.06	1.53	1.01	0.87	0.85	0.86	0.98	1.10	1.10	1.09	1.16	1.29	1.73	2.56	3.41	3.78	3.70	3.34	2.98	2.61	2.35	2.22	2.06	1.82	1.75	1.85	1.62	1.05	0.76	0.78	1.04	1.37	1.68	1.99	2.37	2.58	2.58
3.50	3.20	2.56	2.19	2.06	1.96	1.85	1.69	1.39	0.92	0.75	0.99	1.51	1.79	1.80	1.75	1.71	1.69	1.70	1.72	1.74	1.73	1.73	1.75	1.78	1.83	2.28	3.12	3.44	2.94	2.44	2.45	2.54	2.51	2.26	1.82	1.34	1.11	1.12	1.15	1.18	1.35	1.56	1.71	1.95	2.44	3.00	3.06	2.79	2.73	2.83	2.69	2.26	1.75	1.43	1.26	1.20	1.26	1.32	1.41	1.75	2.40	3.08	3.09	2.80	2.50	2.33	2.23	2.20	2.22	2.26	2.29	2.29	2.27	2.25	2.22	2.17	2.06	1.90	1.84	1.84	1.88	1.94	1.94	1.92	1.91	1.99	2.07	1.84	1.33	1.04	0.97	0.90	0.85	0.92	0.99	0.95	0.97	1.15	1.43	2.04	3.03	3.77	3.79	3.29	2.83	2.65	2.47	2.28	2.17	2.04	1.78	1.60	1.67	1.49	0.94	0.63	0.69	0.99	1.34	1.72	2.14	2.56	2.77	2.77
3.53	3.21	2.59	2.21	1.99	1.86	1.82	1.70	1.35	0.93	0.88	1.24	1.68	1.79	1.68	1.61	1.57	1.56	1.60	1.65	1.69	1.70	1.69	1.72	1.76	1.87	2.46	3.29	3.46	2.87	2.41	2.35	2.35	2.36	2.27	1.80	1.17	0.92	1.02	1.19	1.33	1.58	1.79	1.96	2.32	2.91	3.35	3.27	2.92	2.72	2.60	2.28	1.90	1.51	1.25	1.10	1.02	1.03	1.10	1.26	1.68	2.30	3.04	3.27	2.94	2.48	2.30	2.17	2.15	2.18	2.21	2.22	2.18	2.12	2.07	2.05	2.05	1.94	1.77	1.69	1.72	1.74	1.75	1.75	1.75	1.77	1.82	1.83	1.60	1.27	1.12	1.02	0.86	0.80	0.89	0.98	1.02	1.19	1.54	2.08	2.82	3.50	3.79	3.56	2.95	2.56	2.46	2.40	2.27	2.16	1.99	1.68	1.46	1.47	1.31	0.80	0.55	0.68	0.99	1.31	1.71	2.20	2.73	2.98	2.98
3.51	3.21	2.63	2.24	1.98	1.81	1.78	1.69	1.35	0.98	0.99	1.35	1.68	1.65	1.49	1.44	1.44	1.44	1.47	1.54	1.61	1.64	1.65	1.73	1.83	2.01	2.61	3.36	3.45	2.93	2.48	2.32	2.25	2.24	2.16	1.70	1.08	0.90	1.08	1.30	1.53	1.79	2.01	2.27	2.82	3.36	3.48	3.15	2.69	2.48	2.29	1.97	1.64	1.33	1.09	0.94	0.86	0.86	1.02	1.36	1.83	2.34	2.99	3.32	3.05	2.59	2.50	2.26	2.24	2.23	2.19	2.13	2.06	2.00	1.94	1.94	2.01	1.94	1.73	1.62	1.65	1.69	1.65	1.61	1.61	1.63	1.63	1.58	1.46	1.31	1.18	0.98	0.82	0.85	1.02	1.20	1.41	1.79	2.32	2.81	3.14	3.38	3.48	3.28	2.87	2.57	2.40	2.30	2.23	2.14	1.94	1.65	1.40	1.27	1.08	0.67	0.52	0.75	1.05	1.30	1.68	2.19	2.84	3.20	3.20
3.47	3.20	2.66	2.27	2.02	1.79	1.70	1.64	1.34	1.01	1.01	1.32	1.54	1.44	1.28	1.28	1.32	1.32	1.33	1.41	1.52	1.58	1.64	1.78	1.96	2.20	2.75	3.38	3.48	3.08	2.59	2.31	2.17	2.10	1.97	1.53	1.03	0.98	1.18	1.37	1.61	1.89	2.17	2.62	3.24	3.49	3.29	2.77	2.34	2.21	2.12	1.88	1.52	1.19	0.95	0.81	0.76	0.86	1.18	1.59	1.97	2.30	2.82	3.23	3.39	2.81	2.56	2.38	2.27	2.16	2.08	2.01	2.00	1.97	1.90	1.90	1.98	1.93	1.71	1.54	1.55	1.65	1.71	1.72	1.67	1.59	1.51	1.44	1.39	1.36	1.20	0.97	0.94	1.13	1.33	1.60	1.97	2.42	2.74	2.86	2.83	2.85	3.03	3.08	2.99	2.72	2.40	2.25	2.22	2.15	1.96	1.68	1.39	1.12	0.83	0.56	0.53	0.84	1.20	1.42	1.65	2.14	2.97	3.44	3.44
3.43	3.17	2.68	2.30	2.03	1.77	1.60	1.54	1.31	1.01	1.00	1.22	1.33	1.22	1.13	1.14	1.18	1.21	1.26	1.36	1.49	1.59	1.71	1.89	2.14	2.44	2.91	3.38	3.50	3.14	2.59	2.22	2.05	1.92	1.74	1.33	1.00	1.07	1.24	1.38	1.61	1.96	2.39	3.04	3.51	3.45	3.06	2.44	2.11	2.05	2.07	1.87	1.47	1.09	0.81	0.70	0.72	0.96	1.35	1.66	1.84	2.01	2.46	3.04	3.26	3.07	2.70	2.41	2.16	2.01	1.92	1.94	1.99	1.96	1.86	1.82	1.89	1.85	1.65	1.52	1.54	1.70	1.91	1.96	1.81	1.61	1.47	1.39	1.37	1.37	1.22	1.07	1.18	1.37	1.60	2.00	2.42	2.62	2.56	2.35	2.27	2.36	2.57	2.91	3.12	2.97	2.59	2.40	2.38	2.31	2.05	1.70	1.33	0.95	0.65	0.51	0.61	0.96	1.33	1.57	1.74	2.15	3.07	3.64	3.64
3.40	3.16	2.67	2.29	2.00	1.73	1.55	1.48	1.30	1.06	1.00	1.09	1.15	1.09	1.05	1.06	1.10	1.20	1.32	1.42	1.54	1.68	1.83	2.05	2.36	2.72	3.09	3.45	3.49	3.13	2.52	2.17	2.00	1.81	1.51	1.18	1.06	1.16	1.30	1.45	1.71	2.14	2.77	3.47	3.60	3.25	2.66	2.20	1.88	1.84	1.95	1.83	1.44	0.98	0.69	0.62	0.72	1.00	1.31	1.43	1.47	1.62	2.07	2.90	3.44	3.26	3.35	2.31	2.05	1.97	1.98	2.02	2.02	1.91	1.75	1.71	1.75	1.69	1.58	1.55	1.65	1.95	2.26	2.21	1.89	1.59	1.43	1.37	1.37	1.37	1.27	1.21	1.33	1.53	1.92	2.34	2.49	2.35	2.03	1.81	1.83	1.96	2.22	2.80	3.31	3.27	2.91	2.62	2.46	2.30	2.03	1.64	1.17	0.76	0.53	0.52	0.75	1.12	1.54	1.88	2.13	2.52	3.22	3.60	3.60
3.40	3.15	2.59	2.20	1.92	1.69	1.57	1.49	1.31	1.09	0.98	0.99	1.05	1.03	1.03	1.08	1.17	1.32	1.46	1.55	1.69	1.85	2.02	2.29	2.67	2.99	3.23	3.46	3.46	3.09	2.56	2.22	2.03	1.77	1.41	1.18	1.18	1.28	1.41	1.61	1.93	2.45	3.20	3.68	3.57	2.93	2.41	1.96	1.70	1.70	1.85	1.77	1.38	0.89	0.64	0.61	0.73	0.92	1.08	1.12	1.21	1.43	1.95	2.97	3.64	3.49	2.65	2.26	2.09	2.10	2.17	2.15	1.98	1.77	1.62	1.63	1.67	1.61	1.58	1.70	2.02	2.41	2.52	2.23	1.79	1.50	1.38	1.35	1.37	1.39	1.35	1.34	1.49	1.82	2.25	2.39	2.18	1.85	1.51	1.44	1.54	1.74	2.18	3.00	3.60	3.53	3.04	2.58	2.30	2.07	1.77	1.36	0.94	0.65	0.52	0.61	0.98	1.48	2.00	2.46	2.69	2.89	3.10	3.21	3.21
3.45	3.14	2.48	2.08	1.84	1.67	1.60	1.49	1.27	1.04	0.92	0.94	1.02	1.06	1.12	1.26	1.43	1.60	1.71	1.79	1.93	2.09	2.28	2.60	2.96	3.10	3.24	3.46	3.40	2.98	2.50	2.16	1.92	1.63	1.31	1.17	1.25	1.39	1.55	1.78	2.14	2.73	3.45	3.64	3.25	2.64	2.16	1.81	1.60	1.62	1.77	1.68	1.28	0.85	0.64	0.63	0.70	0.81	0.93	1.03	1.17	1.47	2.07	3.16	3.72	3.53	2.63	2.35	2.30	2.31	2.26	2.07	1.80	1.62	1.57	1.60	1.62	1.62	1.73	2.08	2.50	2.67	2.48	2.00	1.61	1.40	1.32	1.32	1.37	1.44	1.45	1.48	1.72	2.10	2.29	2.06	1.61	1.32	1.22	1.28	1.47	1.81	2.48	3.33	3.84	3.61	2.85	2.28	2.05	1.87	1.55	1.14	0.81	0.65	0.65	0.91	1.52	2.13	2.57	2.81	2.83	2.75	2.66	2.57	2.57
3.53	3.14	2.40	1.98	1.79	1.66	1.60	1.43	1.15	0.92	0.85	0.94	1.07	1.19	1.33	1.51	1.70	1.85	1.92	1.98	2.09	2.27	2.51	2.78	2.95	2.97	3.18	3.45	3.27	2.75	2.28	1.97	1.71	1.44	1.20	1.14	1.25	1.46	1.63	1.88	2.25	2.85	3.42	3.55	2.98	2.39	1.99	1.74	1.58	1.60	1.64	1.52	1.20	0.84	0.68	0.66	0.69	0.80	0.98	1.11	1.31	1.71	2.37	3.35	3.68	3.26	2.67	2.54	2.53	2.44	2.17	1.85	1.62	1.58	1.62	1.66	1.73	1.87	2.18	2.57	2.73	2.60	2.21	1.77	1.48	1.32	1.28	1.31	1.41	1.52	1.55	1.62	1.91	2.15	2.00	1.54	1.23	1.15	1.22	1.43	1.73	2.23	2.93	3.58	3.80	3.42	2.61	2.08	1.90	1.75	1.45	1.09	0.81	0.74	0.89	1.40	2.11	2.52	2.64	2.62	2.51	2.33	2.28	2.27	2.27
3.54	3.14	2.36	1.91	1.74	1.64	1.55	1.35	1.04	0.83	0.81	0.96	1.15	1.32	1.45	1.57	1.73	1.83	1.85	1.89	2.03	2.28	2.55	2.68	2.69	2.76	3.17	3.43	3.14	2.56	2.15	1.87	1.64	1.38	1.20	1.16	1.32	1.55	1.70	1.90	2.23	2.77	3.29	3.31	2.88	2.28	1.89	1.74	1.67	1.63	1.57	1.44	1.19	0.90	0.75	0.73	0.77	0.92	1.14	1.30	1.58	2.12	2.81	3.46	3.54	3.13	2.80	2.73	2.62	2.37	2.01	1.72	1.61	1.69	1.80	1.95	2.15	2.38	2.62	2.72	2.60	2.32	1.97	1.65	1.42	1.29	1.28	1.35	1.47	1.59	1.64	1.74	1.98	2.00	1.59	1.26	1.23	1.32	1.51	1.84	2.23	2.68	3.15	3.54	3.65	3.26	2.51	2.01	1.81	1.69	1.45	1.13	0.88	0.89	1.20	1.84	2.37	2.46	2.27	2.17	2.09	2.02	2.22	2.36	2.36
3.54	3.13	2.32	1.88	1.68	1.57	1.49	1.28	0.95	0.76	0.79	0.97	1.16	1.30	1.39	1.46	1.55	1.61	1.60	1.65	1.91	2.26	2.46	2.42	2.29	2.56	3.24	3.51	3.12	2.49	2.11	1.88	1.69	1.50	1.30	1.24	1.38	1.59	1.70	1.82	2.04	2.54	3.17	3.32	2.93	2.29	1.92	1.87	1.82	1.72	1.61	1.48	1.25	0.98	0.85	0.84	0.92	1.09	1.31	1.61	2.10	2.71	3.16	3.34	3.25	3.04	2.92	2.82	2.56	2.24	1.99	1.83	1.84	1.98	2.15	2.33	2.48	2.57	2.60	2.48	2.29	2.08	1.83	1.57	1.38	1.28	1.30	1.40	1.52	1.63	1.70	1.81	1.95	1.76	1.34	1.31	1.51	1.65	1.89	2.21	2.53	2.76	2.95	3.26	3.53	3.25	2.53	1.99	1.78	1.67	1.46	1.18	1.00	1.08	1.50	1.97	2.15	2.03	1.82	1.76	1.74	1.87	2.36	2.67	2.67
3.54	3.12	2.32	1.86	1.64	1.50	1.40	1.19	0.89	0.71	0.77	0.94	1.11	1.22	1.26	1.26	1.29	1.36	1.50	1.69	1.99	2.30	2.36	2.17	2.06	2.51	3.40	3.64	3.16	2.42	2.06	1.88	1.70	1.53	1.34	1.25	1.34	1.51	1.57	1.61	1.76	2.30	3.08	3.40	3.01	2.39	2.07	2.01	1.97	1.84	1.69	1.52	1.27	1.02	0.91	0.93	1.02	1.20	1.55	2.11	2.67	3.01	3.10	2.94	2.76	2.90	3.10	2.89	2.68	2.12	2.02	2.05	2.11	2.31	2.70	2.40	2.40	2.34	2.25	2.14	2.03	1.88	1.69	1.48	1.33	1.25	1.31	1.43	1.54	1.65	1.75	1.84	1.85	1.57	1.36	1.55	1.76	1.88	2.08	2.32	2.49	2.49	2.51	2.97	3.45	3.27	2.58	1.97	1.75	1.64	1.44	1.22	1.10	1.23	1.55	1.72	1.66	1.55	1.47	1.49	1.60	1.96	2.63	3.02	3.02
3.46	3.09	2.33	1.84	1.60	1.44	1.29	1.06	0.80	0.68	0.75	0.91	1.09	1.20	1.20	1.13	1.07	1.22	1.56	1.91	2.20	2.38	2.27	2.04	2.01	2.66	3.62	3.75	3.16	2.35	1.99	1.85	1.68	1.48	1.24	1.13	1.16	1.29	1.36	1.41	1.59	2.22	3.19	3.50	3.03	2.39	2.16	2.07	1.99	1.86	1.65	1.43	1.18	0.99	0.94	1.01	1.14	1.40	1.94	2.54	2.83	2.85	2.72	2.44	2.40	2.79	3.20	3.02	2.46	2.06	2.04	2.10	2.12	2.15	2.23	2.26	2.18	2.03	1.96	1.93	1.85	1.70	1.55	1.39	1.25	1.21	1.30	1.45	1.57	1.68	1.77	1.83	1.77	1.55	1.51	1.72	1.87	1.95	2.06	2.19	2.22	2.13	2.17	2.75	3.37	3.31	2.65	2.03	1.79	1.69	1.50	1.30	1.19	1.24	1.37	1.36	1.33	1.34	1.32	1.37	1.61	2.15	2.90	3.31	3.31
3.35	3.04	2.35	1.84	1.56	1.36	1.16	0.89	0.69	0.65	0.76	0.96	1.17	1.25	1.21	1.10	1.03	1.18	1.62	2.02	2.33	2.47	2.32	2.09	2.15	2.96	3.83	3.83	3.13	2.31	1.91	1.80	1.66	1.39	1.10	0.96	0.98	1.12	1.24	1.38	1.70	2.51	3.45	3.60	3.00	2.36	2.12	2.04	1.93	1.74	1.52	1.32	1.12	0.99	0.99	1.12	1.33	1.74	2.32	2.67	2.62	2.44	2.26	2.08	2.28	2.85	3.28	3.10	2.49	2.12	2.10	2.11	2.08	2.10	2.17	2.17	2.02	1.83	1.78	1.80	1.73	1.57	1.43	1.29	1.17	1.19	1.33	1.49	1.61	1.71	1.78	1.82	1.75	1.60	1.61	1.76	1.85	1.86	1.85	1.86	1.86	1.88	2.03	2.57	3.21	3.29	2.86	2.30	2.02	1.91	1.72	1.46	1.26	1.18	1.18	1.20	1.24	1.31	1.32	1.40	1.72	2.27	3.07	3.53	3.53
3.28	2.98	2.31	1.80	1.49	1.24	0.97	0.70	0.59	0.65	0.82	1.07	1.28	1.31	1.24	1.17	1.13	1.27	1.59	2.00	2.31	2.52	2.51	2.34	2.48	3.28	3.98	3.82	3.09	2.30	1.89	1.73	1.57	1.34	1.08	0.93	0.98	1.18	1.39	1.63	2.10	2.92	3.63	3.59	2.95	2.37	2.14	2.03	1.85	1.62	1.45	1.30	1.13	1.03	1.06	1.23	1.53	2.00	2.47	2.54	2.29	2.14	2.00	1.95	2.28	2.93	3.36	3.12	2.50	2.22	2.18	2.14	2.09	2.10	2.13	2.11	1.94	1.71	1.64	1.70	1.67	1.47	1.34	1.25	1.19	1.26	1.43	1.57	1.67	1.73	1.79	1.82	1.75	1.64	1.62	1.68	1.71	1.63	1.56	1.56	1.63	1.79	2.11	2.50	2.97	3.21	3.05	2.71	2.43	2.18	1.86	1.49	1.24	1.14	1.14	1.23	1.33	1.40	1.44	1.56	1.86	2.37	3.12	3.55	3.55
3.24	2.93	2.26	1.72	1.37	1.06	0.77	0.58	0.54	0.69	0.95	1.19	1.32	1.32	1.30	1.31	1.33	1.41	1.59	1.94	2.27	2.58	2.76	2.75	2.93	3.59	4.03	3.71	2.98	2.30	1.92	1.73	1.58	1.40	1.18	1.07	1.17	1.43	1.67	1.95	2.41	3.10	3.60	3.48	2.91	2.39	2.18	2.02	1.77	1.55	1.42	1.27	1.12	1.07	1.14	1.36	1.75	2.18	2.41	2.26	1.99	1.93	1.86	1.90	2.27	2.98	3.36	3.07	2.49	2.29	2.22	2.14	2.09	2.05	2.02	2.02	1.90	1.65	1.52	1.57	1.58	1.43	1.30	1.29	1.32	1.44	1.63	1.72	1.75	1.78	1.82	1.85	1.78	1.67	1.60	1.57	1.50	1.42	1.41	1.46	1.61	1.90	2.22	2.47	2.75	3.09	3.20	3.01	2.62	2.18	1.74	1.39	1.20	1.16	1.20	1.32	1.44	1.48	1.53	1.68	1.95	2.40	3.09	3.45	3.45
3.21	2.89	2.19	1.62	1.24	0.90	0.65	0.54	0.61	0.84	1.10	1.24	1.30	1.33	1.39	1.49	1.55	1.58	1.71	1.96	2.29	2.70	2.97	3.11	3.38	3.82	3.89	3.47	2.78	2.24	1.94	1.79	1.67	1.52	1.30	1.22	1.32	1.54	1.76	2.00	2.41	3.03	3.47	3.37	2.89	2.42	2.19	1.97	1.67	1.51	1.40	1.23	1.11	1.10	1.24	1.54	1.94	2.20	2.16	1.93	1.80	1.77	1.74	1.89	2.37	3.08	3.31	2.97	2.46	2.30	2.22	2.12	2.10	2.04	1.93	1.88	1.81	1.63	1.46	1.47	1.52	1.40	1.29	1.35	1.49	1.72	1.91	1.90	1.83	1.84	1.90	1.90	1.83	1.69	1.59	1.49	1.38	1.37	1.45	1.52	1.66	1.92	2.20	2.40	2.60	3.02	3.38	3.20	2.63	2.08	1.66	1.40	1.26	1.20	1.21	1.31	1.38	1.38	1.43	1.61	1.90	2.32	3.02	3.40	3.40
3.17	2.83	2.09	1.52	1.11	0.77	0.60	0.60	0.73	0.94	1.13	1.19	1.25	1.33	1.46	1.63	1.76	1.83	1.90	2.06	2.35	2.80	3.14	3.43	3.66	3.75	3.59	3.12	2.55	2.15	1.92	1.79	1.70	1.52	1.32	1.26	1.32	1.46	1.64	1.93	2.36	2.93	3.33	3.32	2.92	2.47	2.17	1.86	1.59	1.46	1.39	1.27	1.16	1.17	1.34	1.66	1.97	2.00	1.79	1.72	1.71	1.62	1.66	1.95	2.49	3.07	3.27	2.94	2.45	2.28	2.21	2.08	2.04	2.02	1.87	1.72	1.68	1.59	1.46	1.47	1.51	1.38	1.29	1.44	1.76	2.08	2.20	2.04	1.91	1.94	1.99	1.94	1.83	1.69	1.57	1.46	1.37	1.39	1.47	1.48	1.55	1.78	2.10	2.34	2.54	3.04	3.55	3.35	2.64	2.06	1.68	1.45	1.30	1.18	1.13	1.16	1.21	1.24	1.34	1.56	1.89	2.33	3.04	3.42	3.42
3.13	2.76	1.98	1.43	1.02	0.68	0.57	0.63	0.76	0.92	1.01	1.06	1.15	1.30	1.51	1.71	1.90	2.08	2.12	2.17	2.42	2.85	3.28	3.52	3.77	3.52	3.17	2.80	2.36	2.06	1.87	1.75	1.63	1.44	1.28	1.24	1.27	1.40	1.65	1.98	2.36	2.79	3.17	3.28	2.99	2.50	2.10	1.74	1.51	1.42	1.43	1.41	1.31	1.26	1.39	1.64	1.79	1.69	1.55	1.65	1.64	1.50	1.61	1.95	2.40	2.94	3.23	3.02	2.52	2.25	2.19	2.07	1.98	1.95	1.81	1.64	1.56	1.52	1.51	1.55	1.57	1.42	1.34	1.59	2.05	2.42	2.45	2.22	2.08	2.13	2.08	1.92	1.78	1.66	1.55	1.45	1.32	1.26	1.27	1.24	1.35	1.66	2.05	2.31	2.57	3.19	3.66	3.40	2.62	2.03	1.64	1.38	1.20	1.08	1.02	1.07	1.16	1.27	1.42	1.64	1.96	2.45	3.10	3.43	3.43
3.07	2.66	1.88	1.35	0.94	0.61	0.53	0.60	0.75	0.90	0.97	1.00	1.09	1.29	1.56	1.78	2.00	2.25	2.36	2.31	2.49	2.89	3.47	3.93	3.77	3.25	2.86	2.53	2.22	1.98	1.83	1.72	1.59	1.40	1.27	1.23	1.28	1.45	1.73	2.05	2.32	2.62	3.02	3.26	3.04	2.46	1.95	1.61	1.49	1.50	1.59	1.61	1.48	1.33	1.34	1.48	1.52	1.46	1.48	1.60	1.55	1.42	1.55	1.85	2.24	2.77	3.21	3.11	2.65	2.35	2.23	2.08	1.91	1.79	1.68	1.55	1.45	1.47	1.56	1.64	1.65	1.54	1.49	1.84	2.42	2.80	2.77	2.54	2.40	2.29	2.05	1.82	1.70	1.61	1.52	1.37	1.16	1.02	1.01	1.09	1.36	1.74	2.05	2.30	2.69	3.38	3.71	3.33	2.51	1.91	1.55	1.29	1.12	1.01	0.99	1.10	1.24	1.34	1.45	1.62	1.92	2.41	3.11	3.49	3.49
2.98	2.57	1.80	1.26	0.83	0.55	0.47	0.55	0.76	0.95	1.05	1.10	1.21	1.41	1.65	1.86	2.04	2.19	2.58	2.55	2.63	3.04	3.71	3.88	3.60	2.99	2.61	2.36	2.13	1.96	1.85	1.77	1.63	1.45	1.31	1.26	1.31	1.47	1.74	2.03	2.20	2.41	2.87	3.24	3.07	2.43	1.89	1.68	1.68	1.74	1.81	1.77	1.56	1.31	1.23	1.28	1.36	1.41	1.51	1.56	1.49	1.43	1.58	1.89	2.30	2.75	3.15	3.11	2.74	2.46	2.28	2.06	1.78	1.62	1.55	1.45	1.36	1.43	1.62	1.77	1.85	1.81	1.85	2.32	2.94	3.16	2.99	2.75	2.53	2.22	1.86	1.66	1.59	1.52	1.39	1.17	0.93	0.83	0.89	1.11	1.51	1.85	2.08	2.27	2.77	3.54	3.80	3.30	2.42	1.79	1.53	1.35	1.17	1.02	1.01	1.10	1.19	1.23	1.27	1.40	1.75	2.30	3.17	3.64	3.64
2.89	2.48	1.72	1.14	0.72	0.48	0.42	0.53	0.80	1.04	1.18	1.28	1.44	1.64	1.83	1.99	2.13	2.49	2.85	2.92	2.97	3.32	3.56	3.78	3.26	2.73	2.44	2.29	2.12	2.00	1.94	1.85	1.69	1.54	1.41	1.32	1.32	1.47	1.73	1.90	2.00	2.20	2.74	3.24	3.13	2.54	2.10	1.98	1.98	1.93	1.86	1.72	1.46	1.23	1.17	1.26	1.37	1.47	1.56	1.58	1.56	1.63	1.87	2.26	2.62	2.80	2.99	3.01	3.08	2.47	2.21	1.91	1.66	1.52	1.48	1.39	1.33	1.51	1.84	2.15	2.33	2.36	2.52	2.97	3.27	3.19	2.83	2.49	2.24	1.92	1.64	1.49	1.46	1.38	1.21	0.94	0.74	0.76	0.93	1.21	1.53	1.80	2.03	2.24	2.83	3.70	3.94	3.36	2.44	1.87	1.68	1.49	1.23	1.03	0.98	0.98	0.99	1.05	1.14	1.30	1.68	2.36	3.37	3.88	3.88
2.80	2.40	1.64	1.00	0.61	0.41	0.39	0.59	0.90	1.18	1.40	1.60	1.77	1.88	2.01	2.18	2.40	2.82	3.23	3.24	3.19	3.40	3.55	3.36	2.90	2.53	2.36	2.27	2.13	2.03	1.96	1.84	1.69	1.59	1.48	1.36	1.34	1.49	1.66	1.73	1.84	2.10	2.67	3.22	3.17	2.68	2.28	2.10	2.00	1.83	1.69	1.53	1.34	1.18	1.17	1.30	1.42	1.53	1.64	1.71	1.79	2.02	2.29	2.54	2.66	2.55	2.54	2.81	2.77	2.45	2.10	1.84	1.68	1.55	1.47	1.39	1.41	1.80	2.37	2.81	2.93	2.91	2.96	3.11	3.10	2.76	2.28	1.99	1.79	1.58	1.41	1.33	1.32	1.25	1.05	0.81	0.66	0.74	0.96	1.19	1.45	1.70	1.97	2.28	3.01	3.92	4.06	3.37	2.52	2.04	1.81	1.52	1.18	0.98	0.89	0.86	0.89	1.02	1.18	1.36	1.73	2.50	3.57	4.11	4.11
2.69	2.31	1.53	0.86	0.49	0.35	0.44	0.74	1.12	1.45	1.75	1.96	2.07	2.10	2.20	2.47	2.84	3.20	3.51	3.21	3.12	3.07	3.28	3.00	2.65	2.42	2.35	2.28	2.12	2.01	1.92	1.78	1.63	1.53	1.42	1.32	1.34	1.44	1.55	1.67	1.84	2.09	2.64	3.19	3.19	2.72	2.26	2.02	1.84	1.68	1.56	1.43	1.28	1.15	1.13	1.26	1.41	1.55	1.70	1.82	1.99	2.25	2.40	2.42	2.28	1.99	2.00	2.56	2.79	2.51	2.10	1.88	1.78	1.65	1.57	1.51	1.68	2.32	3.03	3.25	3.11	2.94	2.84	2.77	2.63	2.27	1.88	1.65	1.50	1.31	1.17	1.16	1.19	1.12	0.94	0.75	0.65	0.72	0.96	1.19	1.46	1.73	2.03	2.46	3.30	4.20	4.11	3.15	2.35	1.98	1.72	1.34	1.05	0.91	0.86	0.87	0.97	1.15	1.31	1.44	1.77	2.63	3.73	4.24	4.24
2.57	2.18	1.38	0.72	0.39	0.35	0.60	1.05	1.49	1.80	1.99	2.07	2.12	2.20	2.39	2.80	3.24	3.51	3.50	3.23	2.98	2.94	2.95	2.80	2.57	2.40	2.29	2.22	2.13	2.02	1.89	1.74	1.56	1.46	1.37	1.32	1.32	1.38	1.48	1.64	1.77	1.99	2.53	3.16	3.21	2.74	2.25	1.96	1.82	1.68	1.58	1.48	1.31	1.13	1.09	1.23	1.42	1.57	1.72	1.88	2.09	2.23	2.20	1.99	1.77	1.59	1.73	2.34	2.72	2.61	2.23	1.96	1.86	1.80	1.79	1.84	2.19	2.96	3.40	3.24	2.86	2.58	2.44	2.38	2.30	2.05	1.74	1.52	1.34	1.14	1.03	1.05	1.08	1.01	0.85	0.72	0.66	0.77	1.06	1.36	1.68	1.94	2.19	2.74	3.71	4.35	3.93	2.72	2.03	1.80	1.57	1.25	0.98	0.88	0.89	0.96	1.06	1.19	1.30	1.42	1.81	2.77	3.83	4.29	4.29
2.42	2.04	1.25	0.63	0.39	0.49	0.98	1.50	1.77	1.85	1.85	1.85	1.99	2.27	2.63	3.08	3.16	3.38	3.26	3.02	2.85	2.80	2.80	2.73	2.60	2.44	2.23	2.13	2.14	2.08	1.92	1.74	1.57	1.50	1.46	1.39	1.33	1.31	1.39	1.53	1.68	1.91	2.47	3.12	3.23	2.81	2.32	2.00	1.84	1.71	1.59	1.48	1.31	1.14	1.13	1.26	1.46	1.60	1.74	1.94	2.11	2.04	1.75	1.53	1.46	1.51	1.76	2.20	2.59	2.66	2.41	2.13	2.10	2.20	2.31	2.49	2.90	3.33	3.31	2.89	2.54	2.31	2.27	2.26	2.19	1.97	1.70	1.45	1.24	1.07	1.00	1.02	1.02	0.94	0.80	0.70	0.72	0.94	1.34	1.75	2.06	2.25	2.41	3.03	4.04	4.27	3.47	2.43	1.92	1.77	1.55	1.21	0.95	0.87	0.88	0.91	0.97	1.06	1.21	1.42	1.94	2.92	3.87	4.22	4.22
2.27	1.90	1.17	0.60	0.51	0.83	1.34	1.67	1.70	1.58	1.54	1.67	1.99	2.47	2.97	3.30	3.34	3.11	2.89	2.75	2.65	2.62	2.65	2.71	2.67	2.48	2.18	2.03	2.10	2.13	1.97	1.77	1.64	1.60	1.55	1.43	1.29	1.21	1.28	1.48	1.70	1.96	2.40	3.01	3.22	2.89	2.39	2.03	1.81	1.68	1.56	1.43	1.29	1.21	1.21	1.32	1.50	1.65	1.78	1.95	1.99	1.68	1.31	1.27	1.38	1.58	1.82	2.13	2.51	2.73	2.65	2.54	2.65	2.75	2.83	2.97	3.13	3.25	3.32	2.53	2.30	2.21	2.22	2.23	2.15	1.95	1.68	1.41	1.16	1.01	0.98	1.01	0.99	0.89	0.77	0.73	0.86	1.23	1.75	2.15	2.39	2.51	2.67	3.32	4.02	3.98	3.07	2.36	2.05	1.86	1.55	1.21	0.99	0.89	0.83	0.80	0.86	1.03	1.27	1.56	2.14	3.07	3.82	4.07	4.07
2.08	1.73	1.08	0.64	0.66	1.02	1.37	1.50	1.44	1.40	1.46	1.75	2.28	2.91	3.36	3.44	3.21	2.90	2.66	2.54	2.48	2.44	2.51	2.65	2.71	2.55	2.19	1.97	2.05	2.14	1.99	1.80	1.70	1.64	1.53	1.35	1.18	1.10	1.23	1.49	1.70	1.86	2.16	2.80	3.24	3.05	2.51	2.08	1.84	1.70	1.58	1.48	1.42	1.36	1.32	1.37	1.55	1.68	1.76	1.83	1.72	1.33	1.08	1.17	1.45	1.73	1.99	2.33	2.73	2.93	3.00	3.03	3.03	3.53	3.71	2.86	3.00	2.67	2.50	2.29	2.16	2.15	2.18	2.19	2.13	1.92	1.67	1.37	1.08	0.92	0.94	0.99	0.97	0.87	0.79	0.83	1.11	1.59	2.09	2.40	2.55	2.62	2.79	3.37	3.85	3.64	2.97	2.44	2.17	1.94	1.61	1.31	1.07	0.88	0.80	0.82	0.94	1.18	1.43	1.72	2.28	3.10	3.72	3.90	3.90
1.86	1.55	1.02	0.73	0.76	0.98	1.26	1.38	1.40	1.47	1.68	2.14	2.84	3.41	3.59	3.39	3.03	2.69	2.45	2.36	2.33	2.30	2.37	2.56	2.73	2.66	2.30	1.98	1.99	2.08	1.96	1.81	1.73	1.63	1.45	1.23	1.05	1.01	1.17	1.39	1.56	1.65	1.86	2.56	3.25	3.24	2.70	2.23	1.98	1.84	1.74	1.70	1.68	1.56	1.42	1.40	1.51	1.57	1.58	1.54	1.39	1.14	1.04	1.27	1.69	2.06	2.44	2.81	2.97	3.09	3.26	3.21	3.68	2.68	2.65	2.58	2.95	2.36	2.29	2.19	2.09	2.09	2.12	2.11	2.04	1.87	1.60	1.30	1.01	0.90	0.96	1.02	0.97	0.90	0.90	1.07	1.50	2.00	2.35	2.46	2.48	2.54	2.73	3.26	3.70	3.44	2.88	2.44	2.18	1.95	1.63	1.32	1.02	0.84	0.83	0.94	1.08	1.23	1.43	1.73	2.26	3.06	3.63	3.79	3.79
1.63	1.39	1.04	0.86	0.86	1.02	1.28	1.46	1.58	1.76	2.13	2.73	3.37	3.63	3.50	3.17	2.81	2.48	2.26	2.19	2.17	2.17	2.24	2.45	2.73	2.77	2.44	2.01	1.88	1.95	1.89	1.79	1.75	1.64	1.41	1.12	0.93	0.95	1.10	1.27	1.44	1.57	1.80	2.45	3.18	3.33	2.96	2.50	2.20	2.04	1.94	1.86	1.78	1.62	1.40	1.33	1.33	1.34	1.38	1.36	1.24	1.13	1.21	1.62	2.16	2.63	2.91	2.96	2.91	3.05	3.33	3.24	2.81	2.49	2.43	2.40	2.32	2.24	2.23	2.11	2.02	2.04	2.09	2.04	1.93	1.75	1.50	1.21	0.97	0.94	1.04	1.07	1.02	1.01	1.15	1.49	1.92	2.25	2.35	2.26	2.15	2.31	2.70	3.29	3.66	3.49	2.81	2.40	2.13	1.88	1.54	1.18	0.90	0.80	0.84	0.95	1.00	1.05	1.25	1.63	2.20	3.06	3.63	3.75	3.75
1.46	1.33	1.12	0.99	0.99	1.14	1.41	1.66	1.86	2.16	2.64	3.21	3.54	3.50	3.20	2.90	2.59	2.25	2.04	1.98	1.99	2.02	2.10	2.31	2.68	2.84	2.59	2.06	1.81	1.85	1.85	1.80	1.78	1.67	1.40	1.06	0.90	0.97	1.09	1.25	1.49	1.68	1.91	2.43	3.10	3.35	3.12	2.74	2.42	2.15	1.97	1.84	1.73	1.53	1.34	1.25	1.22	1.28	1.36	1.35	1.30	1.33	1.62	2.18	2.74	3.03	2.92	2.65	2.63	2.98	3.37	3.27	2.80	2.38	2.29	2.33	2.31	2.21	2.23	2.08	2.00	2.00	2.08	2.03	1.88	1.69	1.42	1.13	0.96	1.00	1.12	1.13	1.10	1.20	1.47	1.78	2.00	2.08	2.00	1.78	1.71	2.08	2.76	3.49	3.73	3.34	2.78	2.38	2.10	1.82	1.47	1.09	0.85	0.77	0.77	0.80	0.80	0.88	1.17	1.61	2.30	3.25	3.70	3.70	3.70
1.44	1.37	1.20	1.07	1.05	1.22	1.54	1.86	2.16	2.54	3.01	3.35	3.41	3.16	2.84	2.63	2.41	2.10	1.84	1.80	1.88	1.89	1.88	2.14	2.61	2.88	2.73	2.28	1.84	1.79	1.87	1.88	1.83	1.68	1.40	1.07	0.93	1.01	1.13	1.35	1.64	1.87	2.04	2.39	3.00	3.34	3.20	2.84	2.48	2.11	1.90	1.82	1.75	1.58	1.35	1.25	1.24	1.35	1.43	1.46	1.50	1.69	2.11	2.67	3.08	3.01	2.56	2.32	2.52	3.01	3.41	3.28	2.95	2.30	2.20	2.28	2.30	2.22	2.29	2.06	1.98	1.95	2.01	2.04	1.91	1.68	1.39	1.09	0.97	1.06	1.19	1.20	1.21	1.38	1.62	1.72	1.69	1.65	1.52	1.33	1.45	1.99	2.87	3.67	3.76	3.24	2.70	2.35	2.10	1.80	1.42	1.01	0.78	0.72	0.71	0.71	0.73	0.87	1.24	1.83	2.71	3.58	3.70	3.48	3.48
1.50	1.40	1.19	1.06	1.08	1.31	1.69	2.08	2.44	2.81	3.12	3.24	3.12	2.84	2.58	2.44	2.26	1.99	1.70	1.67	1.79	1.76	1.71	1.98	2.48	2.86	2.85	2.52	2.04	1.88	1.97	2.01	1.89	1.68	1.41	1.12	0.94	1.00	1.20	1.50	1.76	1.89	1.99	2.26	2.83	3.30	3.27	2.91	2.49	2.12	1.96	1.90	1.80	1.61	1.35	1.26	1.27	1.36	1.48	1.56	1.70	1.96	2.41	2.87	3.05	2.74	2.26	2.25	2.57	3.04	3.40	3.23	2.71	2.24	2.08	2.18	2.27	2.21	2.11	2.03	1.92	1.85	1.84	2.00	1.97	1.71	1.39	1.12	1.03	1.12	1.23	1.25	1.29	1.42	1.49	1.36	1.24	1.19	1.13	1.15	1.42	2.04	3.03	3.82	3.77	3.15	2.60	2.27	2.04	1.73	1.33	0.91	0.68	0.64	0.66	0.69	0.76	0.97	1.49	2.29	3.23	3.73	3.48	3.07	3.07
1.54	1.38	1.14	1.06	1.17	1.50	1.93	2.32	2.65	2.92	3.08	3.05	2.87	2.62	2.40	2.25	2.10	1.87	1.61	1.58	1.67	1.64	1.65	1.92	2.40	2.85	2.97	2.71	2.31	2.13	2.14	2.09	1.92	1.71	1.45	1.15	0.99	1.09	1.39	1.65	1.73	1.75	1.85	2.14	2.69	3.26	3.36	3.01	2.56	2.24	2.04	1.91	1.75	1.56	1.35	1.26	1.27	1.38	1.54	1.68	1.84	2.10	2.49	2.87	2.92	2.53	2.17	2.30	2.57	2.93	3.25	3.35	2.75	2.25	1.99	2.06	2.21	2.20	2.10	2.01	1.91	1.77	1.69	1.86	1.96	1.73	1.40	1.17	1.09	1.15	1.23	1.26	1.27	1.28	1.20	1.03	0.94	0.94	1.02	1.23	1.59	2.27	3.32	3.99	3.75	3.05	2.51	2.19	1.94	1.60	1.18	0.81	0.58	0.53	0.56	0.64	0.82	1.17	1.83	2.74	3.48	3.62	3.13	2.71	2.71
1.55	1.37	1.14	1.13	1.35	1.76	2.17	2.49	2.76	2.94	3.00	2.89	2.69	2.44	2.22	2.06	1.93	1.73	1.54	1.52	1.57	1.60	1.72	2.02	2.46	2.90	3.08	2.82	2.44	2.24	2.18	2.07	1.91	1.72	1.50	1.22	1.15	1.33	1.55	1.61	1.58	1.65	1.84	2.12	2.61	3.24	3.43	3.06	2.54	2.23	2.01	1.84	1.70	1.55	1.37	1.29	1.32	1.46	1.61	1.74	1.87	2.08	2.45	2.82	2.84	2.46	2.13	2.24	2.44	2.70	3.07	3.30	2.87	2.36	1.99	2.01	2.17	2.19	2.09	2.04	1.97	1.81	1.67	1.77	1.90	1.73	1.42	1.20	1.09	1.12	1.20	1.23	1.18	1.10	1.00	0.87	0.81	0.89	1.14	1.50	1.98	2.81	3.76	4.05	3.59	2.85	2.37	2.07	1.80	1.45	1.02	0.70	0.53	0.47	0.53	0.74	1.08	1.53	2.18	3.03	3.53	3.40	2.83	2.43	2.43
1.56	1.38	1.19	1.26	1.57	1.95	2.27	2.54	2.80	2.94	2.91	2.73	2.51	2.26	2.02	1.85	1.70	1.57	1.53	1.55	1.59	1.69	1.89	2.21	2.61	2.99	3.13	2.87	2.47	2.22	2.09	2.00	1.88	1.74	1.54	1.32	1.30	1.43	1.46	1.39	1.46	1.65	1.82	2.04	2.52	3.25	3.48	3.09	2.47	2.14	1.94	1.76	1.64	1.54	1.39	1.33	1.36	1.45	1.56	1.69	1.79	1.96	2.38	2.80	2.84	2.46	2.06	2.05	2.24	2.49	2.92	3.18	2.96	2.48	2.08	1.99	2.12	2.14	2.07	2.05	2.00	1.87	1.73	1.77	1.83	1.69	1.42	1.20	1.09	1.11	1.18	1.18	1.08	0.98	0.91	0.82	0.81	1.07	1.52	2.03	2.70	3.52	4.01	3.87	3.29	2.69	2.27	1.92	1.61	1.25	0.87	0.64	0.55	0.56	0.76	1.13	1.51	1.89	2.39	3.06	3.43	3.22	2.60	2.19	2.19
1.57	1.40	1.25	1.38	1.66	1.93	2.22	2.56	2.85	2.93	2.78	2.55	2.33	2.07	1.77	1.55	1.47	1.51	1.62	1.67	1.72	1.85	2.06	2.39	2.73	3.01	3.09	2.88	2.51	2.20	2.06	2.01	1.93	1.80	1.60	1.39	1.30	1.26	1.22	1.25	1.42	1.61	1.71	1.87	2.48	3.35	3.62	3.15	2.48	2.10	1.86	1.66	1.53	1.44	1.36	1.32	1.32	1.36	1.47	1.62	1.74	1.95	2.39	2.80	2.88	2.50	2.02	1.90	2.07	2.39	2.86	3.21	3.02	2.53	2.16	2.01	2.07	2.10	2.10	2.08	1.98	1.87	1.83	1.85	1.80	1.60	1.37	1.21	1.16	1.17	1.19	1.14	1.01	0.92	0.86	0.84	1.01	1.49	2.11	2.70	3.37	3.87	3.86	3.43	2.96	2.55	2.16	1.80	1.47	1.12	0.82	0.68	0.69	0.86	1.13	1.41	1.67	1.95	2.37	2.92	3.27	3.09	2.44	2.04	2.04
1.56	1.41	1.29	1.42	1.62	1.86	2.23	2.69	2.91	2.83	2.58	2.34	2.12	1.82	1.47	1.32	1.41	1.63	1.75	1.80	1.88	2.03	2.24	2.53	2.78	2.96	3.04	2.90	2.59	2.28	2.12	2.06	1.99	1.85	1.60	1.37	1.20	1.08	1.04	1.16	1.34	1.52	1.64	1.84	2.56	3.49	3.71	3.18	2.46	2.05	1.83	1.60	1.45	1.36	1.28	1.25	1.26	1.32	1.46	1.64	1.80	2.04	2.40	2.77	2.89	2.55	1.98	1.76	1.97	2.38	2.89	3.23	3.08	2.57	2.18	2.18	2.07	2.10	2.10	2.08	1.98	1.91	1.95	1.94	1.76	1.50	1.34	1.29	1.26	1.24	1.21	1.11	0.95	0.86	0.87	1.02	1.44	2.06	2.56	3.05	3.61	3.80	3.45	2.98	2.70	2.42	2.05	1.74	1.44	1.08	0.82	0.74	0.83	0.99	1.17	1.34	1.51	1.78	2.21	2.75	3.13	3.05	2.47	2.03	2.03
1.56	1.43	1.35	1.44	1.62	1.95	2.44	2.82	2.86	2.64	2.33	2.07	1.85	1.53	1.28	1.30	1.51	1.70	1.79	1.86	2.00	2.18	2.37	2.55	2.72	2.87	2.99	2.95	2.70	2.40	2.18	2.05	1.97	1.84	1.57	1.31	1.11	0.98	0.92	1.03	1.27	1.54	1.67	1.86	2.63	3.58	3.76	3.17	2.42	2.05	1.84	1.61	1.49	1.44	1.36	1.29	1.28	1.35	1.50	1.70	1.89	2.04	2.30	2.70	2.89	2.58	1.95	1.68	1.92	2.39	2.91	3.27	3.11	2.57	2.18	2.07	2.10	2.10	2.06	1.99	1.95	1.98	2.02	1.93	1.69	1.47	1.40	1.41	1.35	1.29	1.23	1.10	0.96	0.93	1.10	1.49	2.00	2.32	2.53	2.97	3.58	3.63	3.13	2.64	2.43	2.23	1.95	1.71	1.42	1.05	0.80	0.75	0.83	0.94	1.06	1.22	1.38	1.66	2.08	2.60	3.06	3.09	2.55	2.07	2.07
1.56	1.48	1.43	1.52	1.76	2.18	2.63	2.83	2.68	2.36	2.04	1.73	1.49	1.31	1.25	1.38	1.54	1.67	1.78	1.88	2.08	2.28	2.38	2.45	2.59	2.81	3.01	3.02	2.78	2.45	2.18	1.99	1.89	1.81	1.58	1.27	1.03	0.90	0.83	0.97	1.33	1.63	1.69	1.89	2.70	3.61	3.73	3.18	2.54	2.14	1.94	1.76	1.71	1.69	1.59	1.43	1.35	1.38	1.53	1.71	1.83	1.88	2.11	2.62	2.90	2.61	1.96	1.70	1.90	2.33	2.88	3.29	3.09	2.50	2.11	2.06	2.15	2.14	2.02	1.91	1.91	1.96	1.94	1.79	1.61	1.49	1.49	1.48	1.38	1.30	1.25	1.15	1.08	1.20	1.54	1.93	2.11	2.10	2.17	2.75	3.51	3.58	2.93	2.42	2.24	2.08	1.86	1.64	1.39	1.05	0.77	0.72	0.81	0.93	1.08	1.27	1.43	1.66	2.03	2.54	3.06	3.15	2.61	2.09	2.09
1.60	1.55	1.53	1.65	1.95	2.37	2.67	2.67	2.40	2.03	1.70	1.40	1.24	1.22	1.30	1.42	1.54	1.64	1.75	1.91	2.12	2.31	2.34	2.35	2.54	2.84	3.07	3.06	2.81	2.48	2.21	2.00	1.87	1.79	1.58	1.23	0.91	0.79	0.78	1.01	1.45	1.70	1.74	2.02	2.84	3.64	3.68	3.17	2.68	2.35	2.12	2.00	1.93	1.84	1.67	1.44	1.35	1.37	1.48	1.60	1.67	1.69	1.90	2.50	2.89	2.68	2.06	1.77	1.85	2.18	2.79	3.26	3.08	2.45	2.04	2.02	2.19	2.18	2.00	1.91	1.97	1.98	1.82	1.65	1.53	1.46	1.46	1.41	1.30	1.27	1.26	1.22	1.24	1.43	1.72	1.86	1.75	1.70	1.96	2.65	3.49	3.55	2.87	2.35	2.15	1.97	1.73	1.53	1.32	1.01	0.74	0.72	0.85	1.01	1.18	1.35	1.56	1.80	2.10	2.62	3.14	3.18	2.63	2.13	2.13
1.66	1.63	1.63	1.79	2.11	2.42	2.53	2.39	2.06	1.73	1.45	1.22	1.13	1.19	1.32	1.47	1.60	1.69	1.78	1.96	2.18	2.32	2.32	2.37	2.58	2.88	3.10	3.08	2.84	2.55	2.29	2.09	1.95	1.78	1.51	1.13	0.78	0.69	0.77	1.11	1.56	1.79	1.91	2.28	3.03	3.64	3.60	3.15	2.71	2.44	2.25	2.08	1.92	1.72	1.51	1.34	1.29	1.31	1.37	1.46	1.48	1.47	1.68	2.39	2.96	2.82	2.23	1.84	1.77	2.02	2.67	3.22	3.09	2.49	2.00	1.93	2.15	2.18	1.96	1.87	2.00	2.01	1.79	1.58	1.47	1.40	1.36	1.29	1.22	1.24	1.27	1.27	1.31	1.45	1.58	1.54	1.47	1.63	2.12	2.91	3.57	3.44	2.86	2.40	2.11	1.83	1.55	1.35	1.18	0.93	0.75	0.79	0.95	1.11	1.24	1.39	1.69	1.99	2.28	2.82	3.26	3.14	2.59	2.21	2.21
1.75	1.72	1.74	1.92	2.16	2.30	2.26	2.07	1.79	1.54	1.32	1.15	1.09	1.17	1.33	1.56	1.73	1.80	1.90	2.11	2.33	2.41	2.39	2.45	2.62	2.92	3.16	3.13	2.88	2.60	2.35	2.16	1.99	1.76	1.38	0.99	0.73	0.70	0.88	1.31	1.74	1.98	2.18	2.57	3.10	3.54	3.53	3.14	2.71	2.47	2.24	2.00	1.79	1.62	1.46	1.35	1.26	1.23	1.24	1.29	1.31	1.31	1.55	2.43	3.11	2.98	2.37	1.88	1.67	1.87	2.52	3.16	3.10	2.52	1.97	1.84	2.04	2.13	1.93	1.83	1.97	2.03	1.80	1.53	1.43	1.37	1.33	1.29	1.26	1.28	1.31	1.30	1.32	1.37	1.42	1.45	1.58	1.93	2.58	3.36	3.63	3.29	2.78	2.39	2.04	1.62	1.29	1.12	1.02	0.87	0.81	0.96	1.14	1.21	1.30	1.49	1.82	2.16	2.50	3.01	3.27	3.01	2.48	2.19	2.19
1.83	1.79	1.80	1.93	2.04	2.04	1.93	1.80	1.62	1.43	1.25	1.11	1.08	1.18	1.41	1.72	1.96	2.07	2.19	2.40	2.56	2.53	2.44	2.45	2.62	3.02	3.30	3.17	2.86	2.55	2.29	2.09	1.88	1.58	1.18	0.89	0.78	0.84	1.12	1.58	1.95	2.17	2.38	2.65	3.00	3.40	3.51	3.19	2.75	2.45	2.17	1.92	1.74	1.63	1.52	1.38	1.24	1.17	1.16	1.20	1.24	1.28	1.64	2.61	3.27	3.08	2.41	1.88	1.61	1.78	2.41	3.06	3.06	2.50	1.95	1.80	1.97	2.05	1.93	1.85	1.93	2.00	1.81	1.55	1.43	1.40	1.38	1.37	1.37	1.37	1.36	1.32	1.32	1.35	1.45	1.63	1.87	2.30	2.98	3.51	3.45	3.04	2.68	2.34	1.92	1.39	1.07	0.97	0.95	0.89	0.92	1.17	1.32	1.32	1.42	1.63	1.93	2.27	2.69	3.09	3.17	2.84	2.28	1.97	1.97
1.90	1.84	1.80	1.81	1.81	1.76	1.68	1.60	1.52	1.40	1.23	1.09	1.10	1.30	1.64	2.05	2.34	2.48	2.56	2.63	2.60	2.43	2.29	2.33	2.62	3.17	3.40	3.12	2.71	2.43	2.20	2.00	1.78	1.45	1.08	0.90	0.91	1.05	1.39	1.79	2.05	2.21	2.34	2.51	2.86	3.31	3.52	3.26	2.78	2.40	2.09	1.85	1.71	1.58	1.45	1.28	1.16	1.11	1.10	1.16	1.21	1.35	1.86	2.77	3.34	3.09	2.41	1.89	1.66	1.84	2.38	2.91	2.95	2.50	2.04	1.90	1.95	1.96	1.94	1.92	1.92	1.92	1.82	1.64	1.55	1.51	1.48	1.47	1.47	1.45	1.40	1.36	1.36	1.40	1.53	1.76	2.03	2.51	3.15	3.40	3.11	2.72	2.54	2.29	1.84	1.30	0.99	0.94	1.00	0.99	1.04	1.23	1.39	1.41	1.50	1.69	1.97	2.37	2.81	3.08	3.02	2.67	2.09	1.77	1.77
1.95	1.86	1.72	1.65	1.62	1.62	1.55	1.47	1.46	1.42	1.28	1.16	1.26	1.61	2.06	2.47	2.71	2.74	2.64	2.50	2.31	2.09	2.04	2.22	2.70	3.30	3.40	2.97	2.58	2.40	2.24	2.06	1.86	1.50	1.14	1.01	1.05	1.23	1.55	1.84	2.01	2.08	2.15	2.34	2.72	3.27	3.59	3.35	2.82	2.32	1.98	1.78	1.64	1.48	1.30	1.14	1.05	1.02	1.02	1.08	1.17	1.43	2.08	2.90	3.30	3.04	2.46	2.01	1.79	1.92	2.30	2.65	2.75	2.55	2.25	2.12	1.98	1.87	1.96	2.03	1.93	1.85	1.81	1.81	1.78	1.67	1.56	1.53	1.53	1.52	1.47	1.43	1.42	1.44	1.57	1.83	2.17	2.70	3.18	3.25	2.88	2.51	2.35	2.16	1.79	1.31	0.98	0.94	1.02	1.02	1.01	1.14	1.38	1.55	1.67	1.89	2.22	2.57	2.87	2.96	2.84	2.53	2.06	1.83	1.83
1.97	1.83	1.63	1.54	1.54	1.54	1.48	1.40	1.45	1.51	1.43	1.39	1.61	2.07	2.52	2.77	2.81	2.65	2.38	2.12	1.90	1.78	1.94	2.26	2.81	3.40	3.35	2.87	2.55	2.43	2.32	2.15	1.93	1.57	1.24	1.12	1.15	1.33	1.59	1.79	1.85	1.84	1.94	2.24	2.65	3.25	3.65	3.41	2.80	2.23	1.91	1.77	1.60	1.40	1.21	1.06	0.99	0.96	0.96	1.02	1.18	1.61	2.31	2.96	3.21	2.98	2.54	2.11	1.85	1.89	2.12	2.29	2.48	2.56	2.46	2.29	2.05	1.87	2.06	2.17	1.99	1.84	1.88	2.05	2.00	1.74	1.57	1.55	1.57	1.57	1.54	1.50	1.48	1.51	1.68	2.00	2.38	2.81	3.13	3.11	2.76	2.40	2.18	1.98	1.71	1.33	1.01	0.93	0.96	0.95	0.94	1.11	1.46	1.81	2.04	2.27	2.50	2.69	2.75	2.69	2.62	2.48	2.25	2.13	2.13
1.95	1.79	1.58	1.50	1.48	1.49	1.47	1.47	1.58	1.69	1.70	1.75	2.07	2.51	2.75	2.75	2.60	2.34	2.02	1.76	1.62	1.71	2.02	2.42	3.00	3.52	3.34	2.86	2.56	2.42	2.29	2.12	1.87	1.55	1.28	1.17	1.19	1.36	1.57	1.66	1.63	1.63	1.83	2.21	2.64	3.29	3.67	3.35	2.67	2.15	1.94	1.82	1.58	1.38	1.22	1.09	1.00	0.95	0.95	1.04	1.30	1.83	2.46	2.93	3.11	2.99	2.64	2.20	1.86	1.83	1.89	1.95	2.22	2.52	2.56	2.39	2.16	2.06	2.27	2.31	2.10	1.97	2.09	2.22	2.02	1.63	1.51	1.57	1.60	1.60	1.56	1.52	1.52	1.59	1.78	2.08	2.43	2.81	3.06	2.98	2.64	2.33	2.08	1.83	1.58	1.28	1.02	0.92	0.90	0.89	0.98	1.26	1.75	2.24	2.44	2.46	2.47	2.49	2.40	2.24	2.30	2.47	2.54	2.57	2.57
1.92	1.79	1.60	1.51	1.48	1.52	1.58	1.67	1.80	1.91	1.97	2.11	2.40	2.62	2.64	2.49	2.27	2.00	1.71	1.50	1.54	1.86	2.28	2.68	3.26	3.62	3.35	2.81	2.47	2.30	2.17	2.01	1.81	1.54	1.29	1.18	1.20	1.35	1.47	1.46	1.42	1.58	1.89	2.29	2.74	3.37	3.62	3.22	2.58	2.17	2.01	1.88	1.62	1.47	1.34	1.17	1.04	0.98	1.01	1.16	1.46	1.98	2.50	2.88	3.05	2.99	2.71	2.31	1.99	1.87	1.80	1.84	2.12	2.46	2.58	2.47	2.32	2.30	2.40	2.35	2.16	2.09	2.18	2.15	1.81	1.49	1.49	1.58	1.61	1.59	1.54	1.52	1.53	1.59	1.76	2.02	2.39	2.83	3.03	2.86	2.50	2.27	2.06	1.72	1.40	1.15	1.02	0.96	0.90	0.93	1.19	1.65	2.20	2.61	2.58	2.30	2.18	2.11	1.96	1.84	2.02	2.46	2.79	2.93	2.93
1.92	1.81	1.64	1.55	1.55	1.64	1.75	1.85	1.93	2.00	2.12	2.29	2.42	2.43	2.30	2.11	1.90	1.67	1.49	1.45	1.66	2.11	2.53	2.95	3.46	3.61	3.23	2.68	2.36	2.20	2.09	2.00	1.82	1.54	1.28	1.17	1.18	1.25	1.30	1.31	1.42	1.72	2.04	2.39	2.85	3.40	3.54	3.09	2.49	2.20	2.06	1.91	1.74	1.59	1.42	1.18	1.05	1.03	1.11	1.30	1.60	2.09	2.54	2.86	3.02	2.97	2.73	2.43	2.20	1.96	1.78	1.82	2.08	2.36	2.55	2.57	2.51	2.44	2.36	2.22	2.05	2.03	2.07	1.94	1.61	1.45	1.52	1.59	1.60	1.57	1.52	1.50	1.52	1.56	1.70	1.98	2.44	2.89	3.02	2.76	2.38	2.19	2.02	1.63	1.25	1.08	1.05	1.04	1.05	1.21	1.62	2.11	2.50	2.65	2.38	1.96	1.85	1.78	1.67	1.70	1.98	2.48	2.95	3.16	3.16
1.92	1.83	1.67	1.61	1.61	1.71	1.82	1.90	1.94	2.00	2.16	2.29	2.28	2.15	1.96	1.75	1.54	1.42	1.43	1.58	1.90	2.34	2.71	3.10	3.54	3.53	3.04	2.56	2.27	2.13	2.08	2.02	1.85	1.54	1.27	1.15	1.14	1.18	1.26	1.39	1.63	1.89	2.13	2.43	2.91	3.39	3.45	2.98	2.46	2.21	2.06	1.91	1.78	1.61	1.35	1.11	1.07	1.12	1.22	1.40	1.70	2.17	2.56	2.82	2.97	2.92	2.72	2.48	2.25	1.93	1.73	1.79	2.00	2.22	2.48	2.67	2.69	2.52	2.27	2.09	1.97	1.95	1.94	1.80	1.63	1.57	1.61	1.61	1.58	1.54	1.50	1.50	1.50	1.55	1.73	2.08	2.57	2.94	2.96	2.68	2.29	2.06	1.91	1.58	1.22	1.09	1.11	1.17	1.29	1.55	1.97	2.31	2.45	2.38	2.04	1.69	1.61	1.57	1.55	1.74	2.13	2.63	3.08	3.25	3.25
1.93	1.86	1.74	1.67	1.66	1.71	1.79	1.86	1.91	2.02	2.17	2.23	2.11	1.89	1.64	1.41	1.32	1.38	1.58	1.87	2.19	2.54	2.83	3.17	3.51	3.39	2.87	2.46	2.21	2.11	2.07	2.00	1.82	1.56	1.29	1.14	1.15	1.23	1.38	1.57	1.75	1.93	2.11	2.40	2.90	3.34	3.35	2.91	2.43	2.20	2.08	1.96	1.81	1.59	1.28	1.12	1.14	1.21	1.31	1.50	1.82	2.24	2.55	2.73	2.86	2.86	2.70	2.47	2.20	1.86	1.69	1.72	1.90	2.12	2.43	2.75	2.81	2.55	2.24	2.10	2.01	1.94	1.89	1.84	1.79	1.75	1.69	1.62	1.56	1.52	1.49	1.49	1.51	1.61	1.85	2.26	2.70	2.93	2.88	2.57	2.17	1.89	1.75	1.54	1.26	1.17	1.20	1.29	1.48	1.77	2.11	2.25	2.17	2.06	1.80	1.51	1.43	1.43	1.54	1.91	2.41	2.92	3.15	3.17	3.17
1.98	1.93	1.83	1.73	1.70	1.69	1.74	1.83	1.93	2.07	2.14	2.06	1.85	1.61	1.39	1.27	1.34	1.59	1.86	2.14	2.41	2.67	2.89	3.19	3.42	3.23	2.77	2.40	2.20	2.14	2.07	1.96	1.84	1.65	1.40	1.26	1.26	1.32	1.44	1.57	1.67	1.81	2.02	2.35	2.85	3.28	3.28	2.85	2.39	2.19	2.09	1.98	1.83	1.62	1.32	1.17	1.22	1.30	1.40	1.59	1.91	2.27	2.49	2.60	2.73	2.81	2.70	2.48	2.21	1.91	1.72	1.70	1.85	2.03	2.30	2.75	2.83	2.53	2.23	2.14	2.06	1.96	1.91	1.90	1.86	1.76	1.64	1.56	1.50	1.49	1.48	1.48	1.53	1.69	2.00	2.42	2.74	2.85	2.75	2.45	2.04	1.76	1.62	1.48	1.31	1.26	1.30	1.40	1.63	1.91	2.09	2.03	1.86	1.80	1.62	1.37	1.31	1.39	1.69	2.21	2.78	3.17	3.10	2.90	2.90
2.06	1.98	1.83	1.72	1.67	1.66	1.71	1.83	1.98	2.05	1.95	1.74	1.52	1.37	1.34	1.38	1.57	1.84	2.07	2.30	2.50	2.67	2.86	3.17	3.33	3.08	2.70	2.44	2.30	2.24	2.18	2.06	1.95	1.80	1.61	1.46	1.37	1.33	1.38	1.47	1.54	1.68	1.96	2.32	2.81	3.20	3.20	2.82	2.38	2.19	2.09	1.93	1.81	1.66	1.43	1.28	1.31	1.38	1.48	1.67	1.96	2.22	2.38	2.47	2.63	2.77	2.71	2.52	2.27	2.00	1.78	1.72	1.80	1.93	2.21	2.66	2.79	2.55	2.27	2.14	2.06	2.00	1.97	1.93	1.81	1.63	1.50	1.45	1.43	1.46	1.47	1.48	1.57	1.78	2.13	2.50	2.70	2.72	2.61	2.34	1.99	1.71	1.55	1.44	1.33	1.32	1.38	1.51	1.73	1.91	1.94	1.79	1.67	1.61	1.46	1.29	1.30	1.58	2.09	2.63	3.08	3.22	2.90	2.54	2.54
2.10	1.96	1.75	1.65	1.61	1.62	1.69	1.81	1.90	1.84	1.58	1.37	1.30	1.32	1.47	1.68	1.87	2.04	2.17	2.34	2.48	2.59	2.82	3.16	3.16	2.95	2.70	2.56	2.43	2.34	2.26	2.17	2.06	1.90	1.73	1.55	1.39	1.31	1.33	1.39	1.45	1.62	1.99	2.38	2.80	3.12	3.11	2.77	2.41	2.20	2.04	1.87	1.80	1.77	1.65	1.51	1.46	1.48	1.57	1.76	1.97	2.11	2.24	2.40	2.60	2.73	2.71	2.55	2.33	2.07	1.84	1.75	1.79	1.89	2.11	2.48	2.72	2.62	2.34	2.12	2.01	2.02	2.04	1.96	1.79	1.60	1.46	1.40	1.42	1.47	1.49	1.52	1.67	1.93	2.24	2.50	2.61	2.59	2.51	2.30	2.00	1.70	1.49	1.39	1.33	1.35	1.45	1.58	1.72	1.81	1.78	1.68	1.60	1.53	1.39	1.31	1.51	2.03	2.55	2.91	3.14	3.09	2.66	2.33	2.33
2.09	1.92	1.69	1.61	1.56	1.56	1.62	1.69	1.68	1.51	1.30	1.21	1.25	1.42	1.77	2.11	2.22	2.20	2.20	2.31	2.44	2.56	2.89	3.23	3.15	2.86	2.76	2.67	2.49	2.34	2.23	2.12	1.98	1.84	1.70	1.52	1.35	1.28	1.28	1.29	1.38	1.67	2.10	2.46	2.77	3.02	3.00	2.72	2.43	2.19	1.97	1.88	1.95	2.00	1.93	1.75	1.60	1.58	1.66	1.80	1.90	1.97	2.14	2.40	2.60	2.69	2.67	2.58	2.39	2.15	1.91	1.77	1.76	1.80	1.89	2.21	2.62	2.69	2.42	2.12	1.97	2.04	2.12	2.01	1.84	1.67	1.52	1.46	1.48	1.51	1.54	1.63	1.83	2.06	2.26	2.40	2.48	2.50	2.47	2.29	1.97	1.62	1.40	1.33	1.32	1.37	1.49	1.64	1.74	1.77	1.76	1.71	1.63	1.57	1.50	1.57	1.94	2.43	2.75	2.90	3.00	2.89	2.53	2.33	2.33
2.03	1.89	1.69	1.58	1.51	1.49	1.52	1.54	1.45	1.30	1.20	1.25	1.46	1.84	2.31	2.55	2.52	2.34	2.28	2.40	2.57	2.76	3.12	3.27	3.02	2.79	2.82	2.72	2.48	2.31	2.16	2.00	1.87	1.75	1.63	1.47	1.32	1.26	1.21	1.22	1.41	1.80	2.21	2.44	2.67	2.91	2.89	2.65	2.43	2.18	2.00	2.07	2.25	2.28	2.09	1.82	1.64	1.64	1.70	1.76	1.81	1.89	2.12	2.40	2.59	2.62	2.59	2.59	2.48	2.24	1.96	1.76	1.68	1.67	1.71	1.98	2.50	2.71	2.49	2.18	2.04	2.10	2.17	2.06	1.88	1.73	1.57	1.53	1.54	1.55	1.60	1.71	1.89	2.05	2.14	2.22	2.36	2.48	2.47	2.27	1.89	1.52	1.32	1.29	1.30	1.37	1.56	1.78	1.88	1.90	1.87	1.79	1.70	1.68	1.70	1.86	2.17	2.45	2.62	2.75	2.84	2.76	2.53	2.39	2.39
2.01	1.88	1.68	1.57	1.49	1.47	1.50	1.48	1.37	1.31	1.42	1.69	2.07	2.49	2.78	2.75	2.52	2.37	2.40	2.58	2.79	3.01	3.21	3.16	2.84	2.70	2.81	2.71	2.46	2.29	2.13	1.97	1.84	1.75	1.62	1.45	1.30	1.22	1.17	1.25	1.54	1.88	2.13	2.29	2.59	2.87	2.80	2.56	2.38	2.21	2.17	2.33	2.46	2.37	2.07	1.80	1.70	1.69	1.70	1.71	1.77	1.89	2.08	2.33	2.52	2.52	2.49	2.60	2.56	2.32	2.01	1.73	1.60	1.58	1.62	1.88	2.40	2.67	2.56	2.31	2.18	2.18	2.17	2.04	1.86	1.71	1.57	1.55	1.58	1.58	1.63	1.72	1.84	1.95	2.01	2.09	2.29	2.50	2.49	2.22	1.79	1.45	1.31	1.27	1.28	1.42	1.75	2.00	2.04	1.98	1.87	1.74	1.65	1.67	1.75	1.87	2.04	2.21	2.42	2.68	2.85	2.78	2.55	2.41	2.41
2.02	1.88	1.67	1.56	1.50	1.49	1.52	1.52	1.52	1.66	1.96	2.31	2.59	2.77	2.80	2.55	2.24	2.27	2.44	2.62	2.81	2.97	3.05	2.92	2.66	2.63	2.78	2.68	2.43	2.25	2.11	1.99	1.90	1.84	1.69	1.47	1.27	1.14	1.14	1.29	1.52	1.73	1.87	2.12	2.63	2.94	2.77	2.45	2.30	2.26	2.38	2.54	2.54	2.36	2.08	1.89	1.83	1.77	1.71	1.71	1.76	1.86	1.98	2.22	2.43	2.43	2.44	2.59	2.60	2.40	2.09	1.74	1.55	1.51	1.58	1.84	2.27	2.58	2.62	2.46	2.30	2.23	2.16	2.02	1.85	1.69	1.55	1.56	1.60	1.60	1.64	1.70	1.78	1.86	1.93	2.02	2.27	2.51	2.49	2.16	1.71	1.42	1.31	1.27	1.33	1.61	1.98	2.12	2.03	1.86	1.67	1.49	1.45	1.53	1.64	1.74	1.87	2.09	2.41	2.79	2.97	2.83	2.51	2.34	2.34
2.02	1.88	1.66	1.57	1.53	1.52	1.58	1.69	1.86	2.10	2.36	2.55	2.63	2.61	2.50	2.21	1.98	2.11	2.31	2.52	2.73	2.86	2.88	2.73	2.51	2.58	2.78	2.66	2.38	2.22	2.13	2.04	2.00	1.93	1.77	1.51	1.24	1.09	1.09	1.20	1.34	1.53	1.77	2.20	2.81	3.04	2.73	2.34	2.23	2.32	2.52	2.65	2.56	2.34	2.14	1.99	1.91	1.80	1.71	1.70	1.71	1.77	1.90	2.14	2.32	2.33	2.44	2.62	2.62	2.45	2.14	1.75	1.53	1.47	1.56	1.82	2.14	2.47	2.65	2.60	2.42	2.28	2.15	2.01	1.88	1.71	1.56	1.56	1.61	1.61	1.62	1.66	1.72	1.81	1.89	1.98	2.23	2.51	2.48	2.14	1.69	1.42	1.31	1.33	1.51	1.86	2.08	2.05	1.84	1.60	1.39	1.26	1.29	1.44	1.59	1.74	1.95	2.29	2.68	3.01	3.07	2.82	2.40	2.18	2.18
2.02	1.87	1.66	1.59	1.56	1.58	1.72	1.96	2.20	2.34	2.41	2.42	2.38	2.33	2.21	1.99	1.86	1.98	2.17	2.44	2.74	2.86	2.82	2.59	2.39	2.57	2.79	2.62	2.34	2.23	2.17	2.09	2.02	1.94	1.75	1.49	1.22	1.06	1.04	1.11	1.28	1.56	1.95	2.48	3.00	3.07	2.67	2.23	2.15	2.32	2.57	2.71	2.61	2.37	2.14	1.99	1.86	1.73	1.65	1.64	1.64	1.70	1.86	2.06	2.18	2.27	2.50	2.69	2.65	2.46	2.13	1.76	1.54	1.45	1.55	1.78	2.03	2.35	2.64	2.71	2.54	2.31	2.12	1.98	1.89	1.73	1.57	1.57	1.62	1.61	1.59	1.62	1.67	1.74	1.82	1.92	2.20	2.49	2.48	2.15	1.72	1.43	1.35	1.46	1.73	1.95	1.97	1.83	1.60	1.36	1.21	1.16	1.26	1.47	1.71	2.00	2.32	2.68	2.99	3.14	3.05	2.73	2.24	1.96	1.96
1.98	1.86	1.70	1.64	1.62	1.69	1.93	2.20	2.32	2.32	2.25	2.18	2.13	2.09	1.99	1.83	1.78	1.93	2.14	2.44	2.79	2.96	2.80	2.43	2.27	2.59	2.79	2.57	2.31	2.25	2.19	2.09	2.00	1.89	1.69	1.42	1.16	1.03	1.03	1.14	1.39	1.72	2.19	2.76	3.11	3.02	2.58	2.09	2.01	2.26	2.56	2.77	2.69	2.43	2.14	1.93	1.76	1.61	1.54	1.55	1.58	1.64	1.77	1.93	2.06	2.26	2.58	2.74	2.65	2.39	2.05	1.77	1.56	1.44	1.52	1.73	1.95	2.20	2.59	2.82	2.65	2.30	2.05	1.93	1.85	1.70	1.56	1.57	1.61	1.60	1.57	1.59	1.63	1.68	1.75	1.89	2.20	2.49	2.48	2.17	1.76	1.45	1.39	1.55	1.78	1.83	1.72	1.59	1.40	1.22	1.14	1.18	1.36	1.67	2.08	2.47	2.78	2.98	3.08	3.07	2.91	2.59	2.06	1.74	1.74
1.97	1.89	1.79	1.73	1.70	1.81	2.09	2.27	2.24	2.13	2.05	1.97	1.90	1.85	1.77	1.70	1.80	2.01	2.21	2.49	2.89	3.05	2.70	2.19	2.23	2.62	2.75	2.55	2.32	2.24	2.20	2.12	2.03	1.91	1.69	1.39	1.11	1.01	1.06	1.23	1.51	1.85	2.38	2.94	3.11	2.88	2.42	1.95	1.85	2.17	2.57	2.82	2.76	2.46	2.15	1.93	1.73	1.54	1.48	1.51	1.54	1.58	1.66	1.83	2.03	2.31	2.64	2.76	2.60	2.30	2.00	1.78	1.56	1.44	1.50	1.69	1.88	2.09	2.53	2.90	2.74	2.27	2.00	1.90	1.80	1.66	1.58	1.60	1.62	1.58	1.56	1.58	1.61	1.65	1.74	1.95	2.24	2.50	2.49	2.19	1.79	1.48	1.42	1.55	1.67	1.61	1.50	1.44	1.35	1.24	1.22	1.36	1.64	2.08	2.58	2.91	3.04	3.02	2.95	2.87	2.74	2.42	1.89	1.59	1.59
2.02	1.95	1.86	1.80	1.78	1.89	2.11	2.18	2.05	1.92	1.85	1.77	1.67	1.60	1.60	1.72	1.98	2.23	2.39	2.65	3.01	3.03	2.53	2.08	2.26	2.57	2.64	2.54	2.36	2.23	2.19	2.14	2.07	1.94	1.70	1.39	1.13	1.05	1.10	1.30	1.62	1.97	2.51	2.99	3.01	2.65	2.24	1.87	1.76	2.08	2.57	2.84	2.75	2.45	2.17	1.96	1.76	1.60	1.52	1.50	1.51	1.53	1.61	1.81	2.06	2.36	2.66	2.73	2.53	2.23	1.98	1.77	1.56	1.45	1.49	1.64	1.81	2.02	2.48	2.94	2.79	2.27	2.01	1.88	1.78	1.70	1.68	1.67	1.63	1.57	1.56	1.58	1.62	1.66	1.79	2.02	2.29	2.51	2.48	2.18	1.79	1.50	1.42	1.50	1.54	1.49	1.44	1.46	1.45	1.41	1.49	1.69	2.00	2.45	2.88	3.06	3.02	2.87	2.70	2.63	2.59	2.30	1.78	1.54	1.54
2.09	2.02	1.91	1.86	1.83	1.88	2.01	2.00	1.84	1.72	1.69	1.62	1.53	1.51	1.67	1.99	2.34	2.54	2.61	2.77	2.97	2.89	2.41	2.11	2.24	2.41	2.45	2.51	2.43	2.27	2.19	2.15	2.08	1.92	1.69	1.45	1.25	1.15	1.19	1.42	1.76	2.10	2.57	2.94	2.86	2.49	2.13	1.84	1.75	2.04	2.57	2.82	2.71	2.44	2.19	1.98	1.82	1.73	1.62	1.53	1.51	1.54	1.62	1.82	2.09	2.39	2.64	2.67	2.47	2.20	1.96	1.75	1.57	1.46	1.48	1.60	1.75	1.98	2.45	2.92	2.82	2.35	2.07	1.92	1.87	1.85	1.79	1.71	1.64	1.58	1.57	1.60	1.63	1.68	1.78	2.03	2.34	2.52	2.44	2.15	1.76	1.48	1.40	1.44	1.46	1.47	1.53	1.61	1.64	1.66	1.76	1.91	2.14	2.54	2.89	2.99	2.89	2.66	2.46	2.43	2.47	2.24	1.78	1.57	1.57
2.16	2.07	1.93	1.87	1.83	1.81	1.84	1.82	1.71	1.66	1.66	1.61	1.57	1.72	2.08	2.50	2.72	2.71	2.65	2.66	2.73	2.74	2.50	2.24	2.21	2.19	2.23	2.44	2.51	2.35	2.18	2.14	2.08	1.92	1.72	1.56	1.39	1.26	1.30	1.55	1.85	2.13	2.54	2.84	2.74	2.43	2.11	1.84	1.79	2.11	2.56	2.77	2.66	2.43	2.21	2.03	1.91	1.85	1.73	1.60	1.55	1.57	1.63	1.80	2.08	2.36	2.54	2.58	2.44	2.19	1.96	1.75	1.56	1.45	1.47	1.57	1.72	1.96	2.42	2.89	2.87	2.48	2.16	2.03	2.05	2.01	1.81	1.68	1.63	1.59	1.59	1.61	1.63	1.65	1.75	2.05	2.39	2.50	2.38	2.10	1.71	1.45	1.39	1.41	1.45	1.51	1.63	1.75	1.79	1.78	1.78	1.82	2.00	2.45	2.84	2.94	2.81	2.55	2.34	2.31	2.36	2.21	1.83	1.64	1.64
2.20	2.10	1.94	1.85	1.79	1.73	1.72	1.71	1.68	1.69	1.74	1.78	1.91	2.20	2.57	2.80	2.76	2.57	2.45	2.36	2.42	2.64	2.62	2.40	2.19	2.05	2.05	2.34	2.56	2.43	2.18	2.12	2.10	1.98	1.79	1.59	1.38	1.26	1.32	1.55	1.82	2.11	2.48	2.73	2.65	2.43	2.16	1.88	1.88	2.20	2.53	2.65	2.58	2.45	2.28	2.09	1.98	1.91	1.80	1.64	1.57	1.57	1.62	1.75	2.02	2.26	2.40	2.51	2.47	2.23	1.96	1.75	1.56	1.45	1.47	1.57	1.72	1.96	2.39	2.87	2.93	2.58	2.24	2.15	2.15	1.99	1.72	1.62	1.61	1.58	1.60	1.62	1.62	1.63	1.75	2.09	2.40	2.45	2.31	2.04	1.67	1.43	1.38	1.40	1.46	1.58	1.71	1.79	1.78	1.70	1.58	1.57	1.81	2.37	2.87	3.00	2.82	2.56	2.33	2.23	2.25	2.16	1.87	1.71	1.71
2.21	2.11	1.95	1.85	1.76	1.69	1.66	1.67	1.70	1.75	1.89	2.08	2.29	2.52	2.71	2.68	2.44	2.27	2.21	2.08	2.18	2.55	2.70	2.54	2.24	1.96	1.87	2.18	2.55	2.49	2.23	2.13	2.11	2.04	1.85	1.55	1.29	1.20	1.28	1.51	1.81	2.14	2.48	2.61	2.52	2.40	2.26	2.01	1.98	2.21	2.45	2.51	2.48	2.47	2.38	2.18	2.03	1.92	1.77	1.61	1.52	1.52	1.58	1.69	1.91	2.10	2.24	2.48	2.55	2.30	1.98	1.75	1.58	1.48	1.49	1.59	1.74	1.96	2.39	2.89	2.97	2.61	2.28	2.19	2.10	1.85	1.60	1.57	1.58	1.57	1.60	1.63	1.63	1.64	1.76	2.08	2.38	2.42	2.27	2.01	1.65	1.42	1.37	1.39	1.46	1.59	1.70	1.71	1.62	1.50	1.43	1.48	1.80	2.44	2.99	3.10	2.88	2.57	2.29	2.14	2.11	2.06	1.89	1.78	1.78
2.20	2.13	1.99	1.87	1.77	1.69	1.65	1.66	1.73	1.88	2.12	2.35	2.47	2.56	2.55	2.39	2.19	2.11	2.03	1.92	2.06	2.44	2.73	2.68	2.33	1.89	1.73	2.04	2.48	2.53	2.34	2.17	2.09	2.04	1.89	1.57	1.27	1.19	1.29	1.52	1.85	2.20	2.47	2.46	2.30	2.33	2.39	2.21	2.06	2.17	2.35	2.41	2.40	2.47	2.46	2.27	2.08	1.92	1.73	1.56	1.45	1.45	1.51	1.62	1.77	1.94	2.17	2.53	2.63	2.34	1.98	1.75	1.59	1.49	1.50	1.62	1.74	1.95	2.41	2.91	2.99	2.63	2.31	2.17	2.00	1.76	1.57	1.55	1.57	1.57	1.61	1.65	1.66	1.66	1.77	2.06	2.34	2.37	2.24	2.01	1.64	1.41	1.36	1.38	1.44	1.56	1.63	1.58	1.46	1.41	1.47	1.61	1.99	2.64	3.14	3.18	2.91	2.54	2.24	2.08	2.00	1.95	1.90	1.87	1.87
2.22	2.16	2.04	1.90	1.78	1.70	1.65	1.67	1.83	2.09	2.34	2.44	2.45	2.44	2.38	2.22	2.10	2.02	1.88	1.83	2.00	2.35	2.74	2.81	2.42	1.88	1.68	1.93	2.39	2.54	2.41	2.21	2.06	1.98	1.87	1.62	1.36	1.27	1.36	1.57	1.92	2.27	2.44	2.28	2.02	2.21	2.49	2.40	2.16	2.15	2.27	2.36	2.39	2.46	2.47	2.31	2.10	1.92	1.73	1.55	1.41	1.38	1.45	1.55	1.69	1.92	2.27	2.62	2.65	2.32	1.96	1.74	1.58	1.47	1.50	1.61	1.71	1.94	2.43	2.92	2.99	2.67	2.35	2.17	1.96	1.77	1.61	1.56	1.58	1.58	1.63	1.69	1.69	1.69	1.80	2.05	2.27	2.30	2.21	2.00	1.65	1.42	1.38	1.40	1.45	1.56	1.61	1.53	1.44	1.52	1.71	1.89	2.24	2.84	3.24	3.21	2.91	2.53	2.24	2.04	1.91	1.88	1.92	1.94	1.94
2.29	2.22	2.07	1.92	1.80	1.73	1.69	1.73	1.97	2.28	2.43	2.39	2.34	2.34	2.27	2.14	2.05	1.93	1.80	1.83	2.04	2.37	2.76	2.84	2.50	2.00	1.74	1.87	2.27	2.51	2.46	2.28	2.06	1.92	1.82	1.68	1.51	1.40	1.42	1.63	1.97	2.29	2.35	2.05	1.77	2.08	2.54	2.57	2.31	2.18	2.24	2.34	2.38	2.41	2.40	2.31	2.13	1.93	1.73	1.53	1.39	1.37	1.43	1.55	1.76	2.03	2.37	2.63	2.59	2.28	1.96	1.73	1.57	1.45	1.48	1.58	1.71	1.97	2.45	2.88	2.97	2.71	2.39	2.16	1.96	1.82	1.67	1.59	1.59	1.61	1.66	1.71	1.72	1.72	1.82	2.01	2.16	2.20	2.18	2.03	1.72	1.49	1.43	1.43	1.48	1.59	1.66	1.61	1.63	1.81	2.00	2.14	2.43	2.94	3.25	3.18	2.88	2.51	2.19	1.96	1.84	1.84	1.92	1.96	1.96
2.37	2.27	2.07	1.91	1.82	1.78	1.76	1.83	2.12	2.36	2.39	2.30	2.27	2.26	2.16	2.05	1.98	1.90	1.86	1.95	2.14	2.41	2.73	2.83	2.55	2.11	1.83	1.84	2.12	2.42	2.49	2.36	2.11	1.88	1.77	1.72	1.63	1.51	1.47	1.67	2.03	2.26	2.16	1.79	1.61	1.96	2.50	2.69	2.50	2.24	2.24	2.32	2.32	2.30	2.29	2.28	2.18	1.98	1.73	1.50	1.40	1.40	1.45	1.61	1.84	2.09	2.38	2.59	2.53	2.25	1.95	1.72	1.55	1.44	1.48	1.60	1.78	2.03	2.39	2.80	2.96	2.78	2.43	2.15	1.96	1.85	1.71	1.61	1.61	1.65	1.70	1.73	1.73	1.73	1.81	1.94	2.04	2.08	2.13	2.10	1.86	1.59	1.49	1.47	1.52	1.63	1.75	1.82	1.88	1.96	2.05	2.21	2.52	2.93	3.18	3.11	2.82	2.43	2.10	1.88	1.78	1.81	1.90	1.94	1.94
2.42	2.30	2.07	1.91	1.85	1.84	1.84	1.92	2.17	2.33	2.31	2.23	2.22	2.17	2.00	1.95	1.99	1.98	1.96	1.99	2.09	2.32	2.67	2.84	2.61	2.20	1.90	1.83	1.98	2.29	2.48	2.43	2.18	1.90	1.79	1.76	1.68	1.55	1.51	1.73	2.04	2.11	1.86	1.58	1.58	1.90	2.42	2.77	2.66	2.36	2.28	2.29	2.24	2.19	2.18	2.23	2.24	2.05	1.74	1.50	1.42	1.42	1.47	1.64	1.88	2.12	2.36	2.56	2.50	2.21	1.91	1.69	1.51	1.43	1.49	1.64	1.81	1.98	2.24	2.68	2.97	2.85	2.49	2.17	1.99	1.88	1.74	1.63	1.65	1.70	1.73	1.74	1.73	1.74	1.79	1.87	1.92	1.95	2.08	2.19	2.02	1.72	1.56	1.52	1.57	1.71	1.85	1.93	1.92	1.84	1.87	2.15	2.53	2.87	3.07	3.01	2.71	2.33	2.03	1.84	1.76	1.79	1.88	1.92	1.92
2.46	2.34	2.12	1.94	1.88	1.89	1.91	1.97	2.11	2.23	2.22	2.20	2.16	2.01	1.85	1.94	2.06	2.03	1.93	1.86	1.92	2.21	2.67	2.91	2.65	2.21	1.97	1.85	1.89	2.13	2.41	2.47	2.27	1.99	1.85	1.77	1.66	1.55	1.53	1.74	1.93	1.83	1.59	1.53	1.66	1.92	2.37	2.81	2.79	2.52	2.36	2.28	2.19	2.12	2.10	2.18	2.26	2.10	1.78	1.56	1.46	1.44	1.49	1.71	1.98	2.17	2.35	2.52	2.44	2.15	1.88	1.66	1.45	1.40	1.51	1.65	1.78	1.88	2.11	2.59	2.96	2.89	2.54	2.22	2.05	1.93	1.77	1.69	1.72	1.76	1.77	1.76	1.74	1.74	1.76	1.81	1.85	1.90	2.10	2.27	2.15	1.84	1.62	1.56	1.62	1.74	1.85	1.88	1.81	1.72	1.80	2.14	2.50	2.78	2.98	2.94	2.63	2.24	1.97	1.81	1.75	1.79	1.87	1.90	1.90
2.50	2.40	2.16	1.96	1.89	1.90	1.94	1.96	2.02	2.11	2.17	2.19	2.09	1.87	1.83	1.98	2.06	1.95	1.79	1.72	1.86	2.25	2.76	2.95	2.63	2.21	2.02	1.90	1.83	1.96	2.29	2.48	2.36	2.09	1.88	1.75	1.64	1.55	1.55	1.67	1.73	1.60	1.53	1.63	1.79	1.98	2.38	2.84	2.89	2.66	2.43	2.27	2.17	2.10	2.07	2.15	2.24	2.13	1.88	1.64	1.49	1.47	1.56	1.84	2.07	2.16	2.28	2.44	2.38	2.10	1.84	1.61	1.40	1.39	1.52	1.64	1.74	1.84	2.06	2.51	2.89	2.91	2.63	2.34	2.12	1.95	1.84	1.79	1.82	1.83	1.81	1.77	1.73	1.73	1.75	1.80	1.85	1.96	2.17	2.33	2.23	1.92	1.64	1.55	1.58	1.65	1.74	1.76	1.74	1.78	1.91	2.14	2.38	2.66	2.94	2.95	2.64	2.25	1.95	1.79	1.75	1.80	1.86	1.88	1.88
2.55	2.42	2.14	1.94	1.87	1.91	1.95	1.95	1.96	2.04	2.13	2.15	2.00	1.81	1.82	1.92	1.92	1.82	1.72	1.74	1.97	2.42	2.89	2.93	2.55	2.20	2.07	1.94	1.79	1.84	2.15	2.44	2.43	2.16	1.89	1.75	1.67	1.61	1.58	1.58	1.60	1.60	1.65	1.76	1.88	2.06	2.43	2.85	2.93	2.71	2.45	2.27	2.17	2.10	2.07	2.11	2.18	2.15	1.95	1.67	1.50	1.52	1.66	1.90	2.03	2.05	2.19	2.39	2.35	2.06	1.76	1.52	1.37	1.41	1.53	1.62	1.72	1.85	2.02	2.35	2.78	2.95	2.80	2.48	2.12	1.90	1.89	1.94	1.92	1.87	1.82	1.75	1.72	1.72	1.76	1.82	1.90	2.03	2.21	2.35	2.25	1.93	1.62	1.50	1.49	1.54	1.64	1.71	1.75	1.83	1.89	1.96	2.15	2.56	2.99	3.03	2.71	2.29	1.96	1.78	1.76	1.81	1.85	1.86	1.86
2.57	2.39	2.08	1.92	1.90	1.94	1.97	1.95	1.94	1.99	2.06	2.04	1.90	1.78	1.79	1.82	1.83	1.80	1.82	1.97	2.21	2.59	2.94	2.84	2.42	2.20	2.11	1.94	1.75	1.77	2.03	2.37	2.45	2.25	1.97	1.83	1.76	1.68	1.60	1.56	1.62	1.68	1.72	1.81	1.94	2.12	2.46	2.84	2.91	2.68	2.44	2.30	2.20	2.12	2.06	2.07	2.13	2.12	1.95	1.67	1.52	1.57	1.72	1.86	1.92	1.98	2.20	2.40	2.31	1.98	1.63	1.42	1.37	1.43	1.53	1.60	1.71	1.87	2.00	2.19	2.67	3.03	2.93	2.49	2.00	1.85	2.03	2.12	1.99	1.86	1.78	1.72	1.71	1.73	1.77	1.85	1.92	2.03	2.22	2.34	2.22	1.90	1.59	1.44	1.40	1.45	1.55	1.63	1.69	1.74	1.74	1.78	2.04	2.65	3.13	3.11	2.74	2.28	1.93	1.77	1.76	1.82	1.85	1.85	1.85
2.53	2.33	2.06	1.99	2.01	2.01	1.98	1.94	1.92	1.94	1.96	1.93	1.83	1.80	1.83	1.86	1.90	1.97	2.10	2.23	2.37	2.64	2.84	2.67	2.36	2.22	2.12	1.92	1.77	1.79	1.97	2.26	2.44	2.34	2.10	1.93	1.82	1.70	1.60	1.57	1.63	1.67	1.72	1.85	2.01	2.20	2.49	2.81	2.85	2.64	2.43	2.32	2.23	2.12	2.03	2.05	2.09	2.05	1.92	1.71	1.56	1.61	1.72	1.80	1.87	2.05	2.30	2.40	2.19	1.80	1.50	1.39	1.39	1.44	1.54	1.61	1.72	1.88	1.99	2.16	2.68	3.13	2.98	2.42	1.97	1.97	2.25	2.26	2.01	1.81	1.74	1.72	1.73	1.75	1.79	1.85	1.90	2.02	2.22	2.31	2.18	1.87	1.55	1.37	1.32	1.34	1.41	1.48	1.56	1.64	1.67	1.81	2.30	2.95	3.25	3.09	2.69	2.26	1.94	1.78	1.77	1.82	1.85	1.85	1.85
2.47	2.33	2.12	2.11	2.16	2.10	1.99	1.93	1.91	1.90	1.91	1.87	1.82	1.88	1.98	2.03	2.10	2.20	2.27	2.29	2.32	2.49	2.67	2.59	2.39	2.25	2.10	1.93	1.82	1.84	1.94	2.15	2.40	2.43	2.23	1.98	1.80	1.67	1.58	1.55	1.58	1.64	1.76	1.95	2.13	2.29	2.49	2.68	2.74	2.62	2.44	2.33	2.24	2.11	2.01	2.03	2.05	1.96	1.87	1.74	1.62	1.64	1.70	1.78	1.94	2.17	2.35	2.28	1.95	1.60	1.44	1.42	1.41	1.46	1.56	1.65	1.74	1.88	2.02	2.25	2.77	3.17	2.95	2.41	2.13	2.26	2.42	2.29	1.97	1.78	1.73	1.74	1.76	1.78	1.80	1.83	1.89	2.03	2.23	2.29	2.13	1.80	1.47	1.30	1.23	1.21	1.28	1.36	1.47	1.63	1.82	2.17	2.75	3.18	3.20	2.94	2.60	2.30	2.03	1.85	1.80	1.81	1.83	1.84	1.84
2.46	2.38	2.26	2.27	2.26	2.13	1.97	1.91	1.90	1.90	1.90	1.87	1.87	2.00	2.12	2.16	2.20	2.24	2.23	2.15	2.09	2.22	2.51	2.63	2.49	2.27	2.08	1.96	1.89	1.88	1.92	2.09	2.36	2.49	2.31	2.01	1.82	1.69	1.59	1.54	1.55	1.66	1.86	2.07	2.23	2.33	2.40	2.46	2.56	2.62	2.54	2.42	2.29	2.12	1.99	2.01	2.03	1.93	1.82	1.75	1.68	1.66	1.71	1.83	2.04	2.24	2.27	2.05	1.70	1.50	1.45	1.45	1.44	1.49	1.60	1.69	1.77	1.89	2.05	2.35	2.85	3.15	2.94	2.55	2.42	2.48	2.42	2.17	1.91	1.76	1.73	1.75	1.77	1.79	1.81	1.83	1.89	2.04	2.22	2.25	2.04	1.67	1.38	1.23	1.11	1.08	1.19	1.31	1.48	1.82	2.25	2.71	3.07	3.14	2.97	2.73	2.53	2.37	2.12	1.90	1.82	1.78	1.80	1.83	1.83
2.51	2.45	2.36	2.33	2.26	2.09	1.95	1.90	1.90	1.91	1.91	1.90	1.94	2.06	2.15	2.15	2.14	2.13	2.05	1.93	1.86	1.99	2.39	2.72	2.62	2.32	2.10	2.00	1.94	1.89	1.93	2.10	2.37	2.50	2.34	2.07	1.91	1.78	1.64	1.56	1.59	1.77	1.98	2.15	2.26	2.26	2.22	2.20	2.33	2.59	2.71	2.58	2.36	2.14	1.98	2.00	2.03	1.92	1.80	1.74	1.71	1.69	1.73	1.89	2.12	2.22	2.09	1.81	1.57	1.48	1.48	1.47	1.48	1.54	1.64	1.72	1.80	1.91	2.08	2.41	2.95	3.19	2.96	2.64	2.52	2.44	2.25	2.01	1.83	1.75	1.72	1.74	1.77	1.79	1.81	1.84	1.89	2.03	2.19	2.18	1.90	1.54	1.32	1.18	1.03	0.99	1.16	1.39	1.73	2.27	2.76	3.03	3.05	2.88	2.67	2.54	2.51	2.44	2.18	1.92	1.80	1.73	1.76	1.82	1.82
2.58	2.51	2.40	2.33	2.20	2.04	1.93	1.92	1.94	1.92	1.92	1.92	1.96	2.04	2.08	2.08	2.07	1.99	1.85	1.75	1.75	1.93	2.42	2.80	2.73	2.39	2.13	2.01	1.95	1.92	1.98	2.15	2.36	2.44	2.32	2.14	2.02	1.89	1.70	1.60	1.65	1.84	2.02	2.15	2.19	2.11	2.01	1.99	2.15	2.56	2.85	2.72	2.39	2.14	2.00	2.02	2.04	1.92	1.77	1.71	1.70	1.71	1.76	1.93	2.12	2.12	1.88	1.63	1.52	1.50	1.50	1.49	1.52	1.60	1.66	1.73	1.82	1.93	2.16	2.59	3.13	3.24	2.90	2.56	2.41	2.27	2.08	1.91	1.84	1.81	1.76	1.75	1.79	1.81	1.83	1.84	1.89	2.00	2.13	2.08	1.78	1.47	1.30	1.16	1.00	1.00	1.27	1.70	2.23	2.76	3.05	3.04	2.83	2.58	2.41	2.39	2.50	2.48	2.21	1.93	1.79	1.70	1.73	1.80	1.80
2.65	2.57	2.45	2.34	2.18	2.00	1.92	1.96	1.99	1.93	1.90	1.92	1.95	1.98	2.02	2.05	2.01	1.84	1.70	1.72	1.82	2.05	2.52	2.86	2.78	2.45	2.15	2.01	1.96	1.96	2.04	2.17	2.29	2.34	2.32	2.23	2.11	1.97	1.76	1.65	1.70	1.82	1.98	2.12	2.09	1.94	1.87	1.89	2.09	2.59	2.95	2.77	2.40	2.15	2.03	2.04	2.03	1.90	1.74	1.67	1.69	1.72	1.78	1.92	2.07	2.01	1.73	1.55	1.51	1.51	1.51	1.51	1.55	1.62	1.67	1.75	1.85	1.98	2.34	2.87	3.23	3.14	2.75	2.48	2.35	2.18	1.99	1.92	1.95	1.94	1.85	1.80	1.81	1.82	1.82	1.84	1.87	1.96	2.06	1.99	1.70	1.43	1.29	1.16	1.06	1.16	1.58	2.16	2.64	2.97	3.04	2.86	2.58	2.35	2.22	2.27	2.46	2.49	2.25	1.99	1.81	1.69	1.71	1.76	1.76
2.73	2.64	2.47	2.31	2.13	1.94	1.89	1.98	2.01	1.89	1.83	1.89	1.94	1.97	2.00	2.01	1.89	1.71	1.68	1.82	1.95	2.16	2.61	2.89	2.78	2.49	2.19	2.02	1.97	2.00	2.07	2.16	2.22	2.26	2.34	2.32	2.17	1.99	1.81	1.69	1.69	1.77	1.95	2.06	1.96	1.81	1.80	1.86	2.13	2.69	2.99	2.78	2.41	2.17	2.05	2.04	2.02	1.88	1.70	1.67	1.70	1.74	1.79	1.89	2.01	1.92	1.65	1.52	1.51	1.51	1.50	1.51	1.57	1.64	1.71	1.80	1.91	2.14	2.63	3.10	3.15	2.89	2.60	2.44	2.33	2.16	2.00	2.00	2.09	2.09	1.97	1.85	1.82	1.81	1.81	1.82	1.85	1.92	1.98	1.89	1.63	1.41	1.29	1.20	1.18	1.42	1.91	2.44	2.80	2.96	2.88	2.63	2.39	2.20	2.10	2.17	2.40	2.48	2.31	2.07	1.87	1.74	1.70	1.70	1.70
2.82	2.69	2.44	2.24	2.06	1.89	1.85	1.94	1.97	1.83	1.77	1.87	1.98	2.01	1.99	1.91	1.78	1.68	1.75	1.90	1.99	2.19	2.64	2.89	2.76	2.50	2.22	2.02	1.97	2.01	2.10	2.16	2.19	2.26	2.37	2.36	2.18	1.97	1.79	1.69	1.65	1.71	1.86	1.94	1.82	1.74	1.79	1.87	2.21	2.78	2.99	2.74	2.38	2.18	2.07	2.04	2.01	1.86	1.69	1.68	1.73	1.75	1.79	1.86	1.95	1.86	1.62	1.51	1.50	1.48	1.45	1.49	1.58	1.67	1.77	1.87	2.07	2.45	2.91	3.10	2.94	2.69	2.52	2.40	2.29	2.18	2.09	2.13	2.23	2.20	2.04	1.90	1.83	1.81	1.80	1.81	1.84	1.87	1.89	1.78	1.58	1.40	1.30	1.24	1.30	1.57	2.02	2.51	2.84	2.89	2.71	2.46	2.27	2.12	1.99	2.06	2.32	2.47	2.35	2.15	1.99	1.81	1.69	1.65	1.65
2.90	2.72	2.39	2.19	2.03	1.87	1.80	1.86	1.92	1.84	1.81	1.94	2.08	2.07	1.94	1.80	1.72	1.71	1.78	1.87	1.97	2.21	2.68	2.90	2.74	2.50	2.24	2.01	1.96	2.03	2.11	2.17	2.20	2.28	2.37	2.32	2.14	1.95	1.77	1.62	1.54	1.59	1.71	1.77	1.74	1.75	1.80	1.88	2.32	2.89	2.96	2.62	2.34	2.20	2.11	2.06	2.00	1.85	1.71	1.73	1.77	1.77	1.78	1.84	1.90	1.79	1.59	1.49	1.48	1.44	1.42	1.48	1.59	1.73	1.88	2.07	2.38	2.80	2.99	2.86	2.69	2.61	2.51	2.36	2.28	2.24	2.20	2.24	2.32	2.25	2.08	1.98	1.89	1.83	1.80	1.80	1.81	1.82	1.79	1.70	1.55	1.41	1.31	1.24	1.31	1.60	2.09	2.61	2.88	2.82	2.59	2.37	2.23	2.07	1.89	1.95	2.26	2.45	2.38	2.22	2.07	1.86	1.65	1.58	1.58
2.91	2.69	2.32	2.13	2.02	1.86	1.78	1.84	1.92	1.92	1.95	2.08	2.16	2.06	1.84	1.71	1.68	1.69	1.71	1.81	1.98	2.27	2.71	2.89	2.72	2.49	2.27	2.06	1.99	2.04	2.11	2.15	2.18	2.25	2.31	2.23	2.07	1.93	1.75	1.55	1.45	1.49	1.59	1.68	1.75	1.81	1.81	1.96	2.52	2.99	2.87	2.47	2.28	2.24	2.16	2.07	2.00	1.88	1.78	1.81	1.82	1.77	1.75	1.80	1.84	1.74	1.57	1.49	1.46	1.42	1.43	1.53	1.70	1.91	2.13	2.41	2.75	2.98	2.88	2.56	2.47	2.59	2.54	2.40	2.36	2.34	2.27	2.29	2.36	2.28	2.15	2.09	1.97	1.82	1.77	1.78	1.77	1.75	1.71	1.64	1.53	1.41	1.29	1.23	1.39	1.84	2.39	2.79	2.88	2.71	2.48	2.32	2.20	2.03	1.81	1.85	2.20	2.43	2.42	2.30	2.13	1.87	1.61	1.51	1.51
2.84	2.61	2.25	2.11	2.04	1.93	1.87	1.90	1.96	2.00	2.06	2.13	2.11	1.91	1.70	1.62	1.62	1.62	1.66	1.83	2.05	2.35	2.73	2.86	2.69	2.48	2.30	2.14	2.05	2.06	2.09	2.10	2.11	2.17	2.21	2.11	1.95	1.84	1.69	1.53	1.47	1.49	1.58	1.71	1.84	1.89	1.90	2.18	2.76	3.00	2.70	2.32	2.22	2.25	2.20	2.10	2.03	1.95	1.91	1.91	1.84	1.73	1.70	1.76	1.81	1.73	1.57	1.49	1.45	1.46	1.55	1.71	1.96	2.18	2.38	2.65	2.87	2.90	2.68	2.36	2.35	2.54	2.57	2.51	2.49	2.41	2.31	2.33	2.38	2.32	2.27	2.19	1.98	1.78	1.73	1.73	1.73	1.70	1.66	1.61	1.53	1.41	1.31	1.35	1.70	2.23	2.66	2.83	2.76	2.56	2.39	2.29	2.19	1.99	1.74	1.76	2.15	2.41	2.45	2.36	2.17	1.91	1.59	1.46	1.46
2.71	2.54	2.28	2.19	2.14	2.07	2.02	2.00	2.01	2.04	2.09	2.09	1.97	1.76	1.60	1.56	1.58	1.59	1.69	1.91	2.14	2.42	2.74	2.83	2.67	2.49	2.33	2.21	2.13	2.10	2.09	2.05	2.05	2.09	2.10	1.98	1.83	1.75	1.64	1.55	1.53	1.57	1.69	1.86	1.98	2.01	2.09	2.45	2.87	2.89	2.52	2.21	2.14	2.21	2.23	2.16	2.10	2.05	2.01	1.93	1.78	1.66	1.66	1.74	1.81	1.74	1.58	1.49	1.48	1.55	1.74	1.97	2.19	2.32	2.41	2.60	2.77	2.75	2.55	2.30	2.28	2.43	2.54	2.63	2.58	2.39	2.29	2.34	2.37	2.36	2.33	2.18	1.92	1.74	1.68	1.69	1.69	1.66	1.63	1.60	1.54	1.44	1.41	1.62	2.05	2.48	2.71	2.71	2.56	2.41	2.34	2.29	2.18	1.93	1.64	1.69	2.12	2.41	2.46	2.37	2.20	1.98	1.63	1.45	1.45
2.58	2.53	2.44	2.38	2.30	2.22	2.12	2.07	2.06	2.05	2.06	2.02	1.87	1.68	1.58	1.56	1.57	1.61	1.76	2.00	2.21	2.49	2.73	2.76	2.64	2.50	2.37	2.25	2.17	2.14	2.07	2.00	1.97	1.98	1.97	1.87	1.76	1.69	1.63	1.58	1.63	1.74	1.91	2.05	2.10	2.12	2.25	2.57	2.83	2.72	2.37	2.12	2.03	2.14	2.26	2.25	2.19	2.12	2.00	1.82	1.66	1.60	1.65	1.75	1.80	1.73	1.58	1.51	1.53	1.67	1.92	2.12	2.22	2.25	2.27	2.41	2.67	2.77	2.58	2.28	2.16	2.25	2.46	2.69	2.62	2.33	2.24	2.31	2.35	2.33	2.25	2.06	1.83	1.69	1.64	1.64	1.65	1.62	1.61	1.60	1.56	1.52	1.60	1.91	2.26	2.50	2.59	2.51	2.38	2.34	2.35	2.30	2.13	1.79	1.52	1.67	2.14	2.42	2.47	2.38	2.23	2.03	1.68	1.47	1.47
2.56	2.60	2.60	2.50	2.37	2.24	2.14	2.12	2.11	2.04	1.98	1.92	1.79	1.66	1.59	1.58	1.60	1.68	1.88	2.10	2.29	2.51	2.66	2.68	2.61	2.51	2.39	2.27	2.20	2.15	2.05	1.91	1.85	1.86	1.84	1.79	1.72	1.67	1.63	1.66	1.81	2.01	2.14	2.17	2.15	2.15	2.28	2.57	2.75	2.58	2.28	2.03	1.91	2.07	2.30	2.35	2.27	2.13	1.93	1.71	1.61	1.61	1.67	1.75	1.79	1.71	1.58	1.54	1.58	1.76	2.00	2.11	2.12	2.12	2.13	2.26	2.64	2.89	2.69	2.27	2.05	2.11	2.36	2.65	2.68	2.41	2.27	2.30	2.33	2.28	2.14	1.92	1.74	1.63	1.60	1.60	1.60	1.60	1.60	1.60	1.59	1.61	1.77	2.05	2.27	2.39	2.43	2.34	2.26	2.34	2.38	2.28	2.02	1.63	1.46	1.75	2.21	2.44	2.46	2.39	2.27	2.08	1.72	1.48	1.48
2.66	2.70	2.68	2.51	2.29	2.15	2.14	2.15	2.09	1.97	1.87	1.82	1.76	1.68	1.62	1.62	1.67	1.80	2.02	2.19	2.32	2.45	2.54	2.61	2.60	2.52	2.40	2.27	2.20	2.16	2.04	1.85	1.76	1.76	1.75	1.72	1.69	1.67	1.69	1.84	2.09	2.25	2.24	2.16	2.09	2.10	2.27	2.56	2.67	2.48	2.18	1.93	1.82	2.04	2.33	2.41	2.30	2.10	1.86	1.68	1.64	1.67	1.71	1.76	1.76	1.69	1.61	1.59	1.64	1.81	1.99	2.03	2.04	2.07	2.08	2.25	2.71	2.99	2.79	2.31	2.05	2.06	2.24	2.55	2.73	2.58	2.34	2.27	2.28	2.25	2.12	1.91	1.73	1.61	1.57	1.55	1.56	1.58	1.59	1.60	1.61	1.68	1.84	2.06	2.20	2.25	2.25	2.20	2.25	2.39	2.38	2.20	1.88	1.53	1.49	1.87	2.28	2.45	2.47	2.40	2.28	2.10	1.72	1.47	1.47
2.78	2.76	2.68	2.47	2.19	2.05	2.10	2.10	1.99	1.85	1.77	1.76	1.75	1.70	1.65	1.67	1.78	1.94	2.11	2.20	2.25	2.29	2.41	2.57	2.64	2.56	2.40	2.25	2.20	2.18	2.05	1.84	1.72	1.68	1.66	1.65	1.67	1.74	1.89	2.14	2.32	2.30	2.16	2.05	2.02	2.07	2.27	2.54	2.59	2.37	2.08	1.85	1.81	2.04	2.36	2.43	2.28	2.03	1.81	1.72	1.72	1.75	1.76	1.77	1.76	1.71	1.66	1.65	1.69	1.82	1.96	2.01	2.04	2.05	2.09	2.36	2.82	3.05	2.82	2.37	2.08	1.99	2.10	2.46	2.77	2.67	2.38	2.19	2.16	2.19	2.15	1.99	1.78	1.63	1.54	1.51	1.53	1.56	1.59	1.60	1.63	1.73	1.86	2.00	2.10	2.12	2.14	2.20	2.34	2.43	2.34	2.08	1.74	1.50	1.58	1.97	2.32	2.46	2.47	2.39	2.27	2.08	1.69	1.47	1.47
2.85	2.81	2.68	2.43	2.12	1.97	2.01	2.02	1.91	1.78	1.72	1.73	1.74	1.71	1.69	1.73	1.87	2.01	2.10	2.12	2.12	2.15	2.32	2.58	2.70	2.60	2.40	2.25	2.21	2.19	2.06	1.85	1.68	1.61	1.59	1.60	1.71	1.92	2.17	2.35	2.35	2.18	2.03	1.99	2.01	2.09	2.29	2.50	2.49	2.26	1.99	1.83	1.81	2.05	2.36	2.42	2.24	2.01	1.84	1.81	1.86	1.83	1.79	1.79	1.79	1.75	1.70	1.69	1.71	1.79	1.92	2.03	2.03	1.99	2.13	2.54	2.96	3.07	2.80	2.38	2.05	1.89	1.99	2.44	2.77	2.68	2.38	2.11	2.01	2.07	2.16	2.07	1.85	1.65	1.53	1.49	1.51	1.56	1.59	1.61	1.66	1.76	1.84	1.93	2.02	2.08	2.17	2.30	2.41	2.40	2.23	1.94	1.64	1.52	1.69	2.04	2.35	2.49	2.48	2.37	2.23	2.03	1.70	1.52	1.52
2.88	2.82	2.65	2.36	2.05	1.89	1.92	1.95	1.90	1.80	1.72	1.71	1.73	1.71	1.71	1.77	1.89	1.97	2.00	2.01	2.01	2.07	2.31	2.64	2.75	2.61	2.41	2.28	2.22	2.16	2.04	1.84	1.63	1.56	1.56	1.60	1.78	2.09	2.33	2.38	2.25	2.07	1.98	2.01	2.06	2.11	2.28	2.45	2.40	2.15	1.93	1.79	1.81	2.07	2.36	2.39	2.23	2.05	1.92	1.94	1.99	1.90	1.82	1.82	1.82	1.78	1.73	1.70	1.70	1.78	1.93	2.03	1.97	1.95	2.29	2.81	3.07	3.00	2.73	2.37	2.03	1.83	1.94	2.43	2.73	2.62	2.37	2.09	1.92	1.97	2.12	2.12	1.92	1.68	1.52	1.47	1.51	1.57	1.60	1.63	1.68	1.75	1.79	1.87	2.01	2.15	2.28	2.39	2.40	2.30	2.09	1.82	1.60	1.57	1.79	2.14	2.42	2.52	2.47	2.32	2.15	1.97	1.74	1.62	1.62
2.83	2.77	2.58	2.28	1.99	1.86	1.89	1.93	1.92	1.85	1.77	1.73	1.72	1.71	1.72	1.77	1.83	1.86	1.90	1.95	1.98	2.09	2.41	2.72	2.77	2.60	2.42	2.31	2.17	2.04	1.98	1.81	1.59	1.55	1.57	1.63	1.84	2.17	2.38	2.39	2.23	2.04	1.99	2.05	2.08	2.10	2.23	2.38	2.32	2.08	1.84	1.73	1.84	2.13	2.36	2.37	2.23	2.07	2.00	2.04	2.05	1.94	1.85	1.84	1.84	1.79	1.75	1.72	1.74	1.85	1.97	1.99	1.94	2.09	2.62	3.02	3.02	2.80	2.63	2.39	2.08	1.84	1.93	2.37	2.62	2.51	2.37	2.18	1.99	1.94	2.03	2.11	1.99	1.73	1.54	1.47	1.52	1.58	1.61	1.64	1.67	1.71	1.77	1.89	2.08	2.26	2.36	2.39	2.32	2.17	1.96	1.74	1.59	1.62	1.88	2.25	2.49	2.53	2.41	2.21	2.06	1.95	1.81	1.74	1.74
2.65	2.64	2.55	2.30	2.04	1.96	1.98	1.99	1.95	1.90	1.84	1.77	1.72	1.71	1.71	1.73	1.75	1.80	1.92	2.02	2.06	2.21	2.55	2.78	2.73	2.56	2.42	2.28	2.05	1.91	1.91	1.79	1.59	1.57	1.60	1.66	1.88	2.21	2.42	2.45	2.27	2.05	1.99	2.05	2.04	2.05	2.19	2.32	2.25	1.97	1.71	1.73	1.97	2.23	2.36	2.33	2.20	2.08	2.05	2.07	2.07	1.99	1.92	1.89	1.85	1.80	1.77	1.77	1.82	1.90	1.94	1.93	2.03	2.41	2.90	3.03	2.79	2.54	2.50	2.41	2.16	1.87	1.87	2.25	2.45	2.37	2.36	2.30	2.11	1.97	1.92	2.03	2.03	1.82	1.58	1.48	1.53	1.61	1.64	1.65	1.66	1.71	1.82	1.99	2.18	2.32	2.37	2.33	2.20	2.04	1.85	1.68	1.59	1.66	1.98	2.36	2.54	2.50	2.34	2.13	1.99	1.93	1.90	1.87	1.87
2.30	2.43	2.54	2.43	2.23	2.12	2.09	2.05	1.98	1.94	1.89	1.79	1.72	1.70	1.70	1.71	1.75	1.86	1.99	2.05	2.09	2.27	2.60	2.79	2.68	2.47	2.36	2.21	1.95	1.83	1.86	1.78	1.63	1.61	1.63	1.70	1.93	2.27	2.49	2.48	2.27	2.04	1.98	1.99	1.96	1.99	2.17	2.28	2.15	1.81	1.63	1.82	2.14	2.31	2.33	2.26	2.15	2.07	2.06	2.09	2.10	2.07	2.01	1.92	1.83	1.80	1.80	1.81	1.84	1.84	1.84	1.95	2.26	2.70	2.98	2.90	2.57	2.38	2.39	2.40	2.21	1.90	1.80	2.09	2.27	2.28	2.39	2.39	2.20	1.99	1.83	1.91	2.04	1.92	1.63	1.50	1.55	1.64	1.67	1.66	1.67	1.77	1.93	2.09	2.23	2.33	2.33	2.23	2.07	1.89	1.73	1.60	1.59	1.75	2.10	2.44	2.56	2.48	2.28	2.05	1.89	1.92	1.98	1.97	1.97
1.94	2.20	2.52	2.55	2.39	2.24	2.16	2.10	2.03	1.97	1.89	1.78	1.71	1.70	1.70	1.73	1.82	1.92	1.95	1.96	2.05	2.30	2.65	2.82	2.64	2.37	2.22	2.10	1.94	1.85	1.85	1.79	1.69	1.67	1.69	1.78	2.02	2.33	2.50	2.44	2.23	2.04	1.96	1.91	1.86	1.95	2.17	2.23	2.00	1.68	1.66	1.99	2.27	2.34	2.28	2.19	2.11	2.06	2.05	2.09	2.13	2.14	2.08	1.92	1.80	1.78	1.81	1.82	1.80	1.77	1.85	2.12	2.50	2.77	2.87	2.73	2.48	2.33	2.32	2.34	2.23	1.97	1.79	1.88	2.10	2.26	2.43	2.43	2.24	1.99	1.78	1.80	2.03	2.01	1.71	1.52	1.56	1.66	1.69	1.66	1.70	1.84	2.00	2.13	2.24	2.30	2.25	2.09	1.91	1.76	1.63	1.57	1.66	1.91	2.23	2.49	2.58	2.46	2.23	1.96	1.82	1.93	2.04	2.04	2.04
1.75	2.02	2.44	2.61	2.52	2.34	2.25	2.17	2.08	1.96	1.84	1.76	1.73	1.72	1.73	1.78	1.86	1.88	1.84	1.88	2.09	2.44	2.77	2.83	2.57	2.25	2.09	2.04	2.00	1.95	1.89	1.80	1.75	1.74	1.77	1.88	2.08	2.32	2.44	2.37	2.21	2.07	1.97	1.88	1.82	1.93	2.15	2.15	1.88	1.64	1.78	2.15	2.35	2.33	2.22	2.14	2.08	2.01	2.00	2.08	2.16	2.18	2.12	1.95	1.79	1.76	1.81	1.82	1.79	1.81	1.98	2.29	2.53	2.67	2.74	2.65	2.47	2.34	2.27	2.24	2.22	2.07	1.84	1.77	1.96	2.28	2.46	2.42	2.23	1.99	1.76	1.77	2.02	2.06	1.80	1.56	1.56	1.66	1.69	1.68	1.74	1.88	2.01	2.12	2.21	2.22	2.12	1.95	1.79	1.67	1.60	1.63	1.80	2.06	2.32	2.51	2.57	2.44	2.20	1.93	1.80	1.95	2.07	2.06	2.06
1.66	1.86	2.30	2.64	2.67	2.49	2.31	2.16	2.01	1.86	1.77	1.77	1.77	1.76	1.77	1.81	1.85	1.82	1.82	1.97	2.25	2.58	2.80	2.73	2.42	2.14	2.04	2.06	2.09	2.05	1.93	1.81	1.78	1.80	1.84	1.91	2.06	2.27	2.38	2.33	2.23	2.11	2.01	1.90	1.84	1.91	2.09	2.07	1.79	1.65	1.91	2.28	2.39	2.30	2.19	2.11	2.04	1.95	1.95	2.07	2.18	2.20	2.14	1.99	1.82	1.79	1.83	1.84	1.84	1.90	2.07	2.26	2.36	2.55	2.71	2.64	2.48	2.36	2.23	2.15	2.18	2.12	1.87	1.72	1.92	2.30	2.45	2.37	2.19	1.98	1.77	1.77	2.02	2.10	1.88	1.62	1.57	1.65	1.71	1.73	1.77	1.88	2.00	2.10	2.17	2.14	2.01	1.86	1.74	1.65	1.63	1.74	1.96	2.17	2.36	2.52	2.54	2.41	2.20	1.94	1.82	1.96	2.06	2.03	2.03
1.57	1.76	2.24	2.71	2.78	2.55	2.26	1.99	1.81	1.77	1.82	1.86	1.83	1.79	1.78	1.81	1.82	1.83	1.93	2.09	2.31	2.60	2.74	2.58	2.26	2.07	2.06	2.11	2.13	2.08	1.93	1.79	1.79	1.83	1.85	1.88	2.03	2.26	2.35	2.30	2.23	2.15	2.05	1.96	1.87	1.87	2.00	1.97	1.72	1.69	2.05	2.37	2.40	2.28	2.17	2.09	1.99	1.89	1.93	2.09	2.19	2.18	2.12	2.02	1.92	1.91	1.92	1.89	1.88	1.95	2.05	2.11	2.21	2.53	2.76	2.65	2.46	2.34	2.20	2.08	2.12	2.12	1.89	1.73	1.96	2.30	2.40	2.30	2.15	1.95	1.77	1.80	2.03	2.13	1.97	1.68	1.59	1.66	1.73	1.77	1.80	1.88	1.98	2.07	2.13	2.08	1.96	1.84	1.73	1.67	1.70	1.88	2.08	2.24	2.37	2.49	2.49	2.38	2.20	1.98	1.87	1.95	2.00	1.97	1.97
1.62	1.84	2.38	2.81	2.78	2.47	2.17	1.93	1.81	1.88	2.02	2.00	1.87	1.78	1.77	1.80	1.82	1.87	1.97	2.05	2.20	2.52	2.69	2.50	2.19	2.06	2.07	2.10	2.11	2.05	1.90	1.78	1.79	1.84	1.84	1.87	2.07	2.28	2.32	2.25	2.20	2.16	2.09	2.01	1.86	1.78	1.86	1.83	1.68	1.79	2.18	2.41	2.38	2.26	2.16	2.08	1.95	1.85	1.93	2.09	2.15	2.13	2.09	2.05	2.08	2.12	2.03	1.92	1.89	1.93	1.99	2.01	2.18	2.60	2.79	2.63	2.40	2.29	2.13	2.01	2.05	2.11	1.92	1.77	2.01	2.30	2.33	2.23	2.10	1.90	1.75	1.84	2.07	2.17	2.03	1.76	1.63	1.67	1.74	1.78	1.81	1.87	1.96	2.05	2.11	2.06	1.95	1.83	1.74	1.71	1.79	1.98	2.16	2.25	2.35	2.44	2.45	2.37	2.25	2.09	1.94	1.91	1.92	1.90	1.90
1.83	2.08	2.58	2.81	2.65	2.36	2.16	1.99	1.94	2.07	2.17	2.06	1.85	1.75	1.76	1.80	1.82	1.86	1.91	1.92	2.08	2.46	2.65	2.46	2.19	2.08	2.07	2.08	2.07	2.02	1.89	1.80	1.81	1.85	1.85	1.90	2.11	2.28	2.26	2.16	2.15	2.17	2.13	2.03	1.83	1.68	1.69	1.72	1.74	1.97	2.28	2.41	2.34	2.24	2.17	2.08	1.92	1.81	1.92	2.07	2.11	2.08	2.05	2.11	2.24	2.30	2.09	1.90	1.86	1.88	1.93	1.98	2.19	2.63	2.79	2.57	2.31	2.18	2.01	1.93	2.02	2.11	1.95	1.81	2.05	2.29	2.26	2.15	2.03	1.84	1.76	1.92	2.13	2.21	2.08	1.82	1.65	1.66	1.74	1.78	1.82	1.87	1.95	2.04	2.08	2.04	1.93	1.83	1.76	1.77	1.86	2.03	2.17	2.24	2.31	2.40	2.42	2.38	2.31	2.17	1.95	1.83	1.82	1.82	1.82
2.09	2.31	2.62	2.66	2.47	2.31	2.17	2.04	2.02	2.11	2.15	2.01	1.81	1.73	1.76	1.79	1.79	1.81	1.84	1.87	2.06	2.42	2.58	2.43	2.22	2.11	2.08	2.08	2.07	2.03	1.94	1.84	1.82	1.85	1.86	1.91	2.09	2.26	2.20	2.07	2.08	2.17	2.17	2.04	1.80	1.59	1.57	1.72	1.92	2.16	2.33	2.36	2.29	2.22	2.17	2.10	1.91	1.77	1.89	2.06	2.08	2.03	2.03	2.17	2.39	2.41	2.13	1.88	1.81	1.82	1.87	1.99	2.25	2.64	2.76	2.49	2.21	2.06	1.91	1.88	2.04	2.13	1.98	1.87	2.08	2.27	2.20	2.07	1.94	1.81	1.83	2.04	2.20	2.22	2.09	1.82	1.64	1.65	1.73	1.79	1.84	1.88	1.95	2.02	2.05	2.00	1.92	1.83	1.79	1.82	1.91	2.04	2.16	2.23	2.30	2.37	2.40	2.39	2.34	2.19	1.92	1.74	1.72	1.74	1.74
2.29	2.40	2.53	2.47	2.36	2.28	2.17	2.05	2.05	2.09	2.08	1.97	1.81	1.73	1.74	1.76	1.76	1.77	1.81	1.88	2.06	2.34	2.49	2.41	2.24	2.13	2.10	2.09	2.08	2.06	1.99	1.87	1.83	1.85	1.86	1.91	2.07	2.22	2.14	1.98	2.04	2.17	2.20	2.06	1.78	1.56	1.57	1.82	2.10	2.26	2.31	2.28	2.24	2.21	2.18	2.11	1.92	1.75	1.87	2.05	2.06	2.01	2.04	2.25	2.49	2.47	2.17	1.85	1.73	1.74	1.83	2.01	2.31	2.62	2.66	2.41	2.15	2.00	1.87	1.89	2.07	2.14	2.02	1.92	2.07	2.24	2.15	1.99	1.88	1.84	1.94	2.13	2.22	2.19	2.04	1.79	1.64	1.67	1.74	1.81	1.85	1.89	1.93	1.99	2.01	1.97	1.90	1.83	1.81	1.87	1.96	2.06	2.15	2.25	2.32	2.35	2.37	2.38	2.35	2.18	1.88	1.66	1.65	1.69	1.69
2.37	2.40	2.41	2.37	2.35	2.28	2.15	2.06	2.06	2.11	2.10	2.02	1.88	1.79	1.75	1.73	1.73	1.75	1.80	1.87	2.01	2.22	2.40	2.42	2.29	2.16	2.12	2.11	2.09	2.07	2.02	1.91	1.83	1.84	1.87	1.93	2.05	2.15	2.05	1.93	2.02	2.19	2.23	2.08	1.79	1.59	1.63	1.91	2.19	2.28	2.23	2.18	2.19	2.21	2.20	2.13	1.94	1.75	1.85	2.03	2.03	2.01	2.10	2.33	2.53	2.49	2.16	1.78	1.63	1.67	1.80	2.02	2.32	2.55	2.54	2.33	2.12	1.99	1.89	1.93	2.08	2.15	2.05	1.95	2.05	2.19	2.09	1.93	1.87	1.90	2.03	2.18	2.19	2.10	1.95	1.77	1.69	1.72	1.78	1.83	1.86	1.89	1.92	1.97	1.99	1.94	1.88	1.84	1.85	1.93	2.03	2.10	2.16	2.27	2.33	2.32	2.34	2.36	2.33	2.16	1.85	1.64	1.64	1.68	1.68
2.37	2.36	2.31	2.33	2.38	2.29	2.13	2.04	2.05	2.10	2.13	2.08	1.98	1.88	1.77	1.71	1.70	1.73	1.77	1.83	1.92	2.10	2.35	2.45	2.32	2.17	2.12	2.11	2.10	2.08	2.04	1.94	1.83	1.82	1.88	1.94	2.03	2.07	1.99	1.92	2.02	2.21	2.27	2.11	1.81	1.62	1.67	1.95	2.23	2.27	2.15	2.10	2.17	2.23	2.21	2.13	1.94	1.75	1.84	2.00	2.00	2.02	2.19	2.40	2.54	2.46	2.10	1.70	1.57	1.64	1.78	2.00	2.29	2.47	2.45	2.28	2.13	2.03	1.95	1.96	2.06	2.14	2.08	1.96	2.00	2.12	2.05	1.92	1.90	1.95	2.07	2.17	2.13	2.01	1.90	1.81	1.78	1.80	1.82	1.84	1.87	1.90	1.92	1.95	1.96	1.92	1.88	1.86	1.90	2.01	2.13	2.16	2.19	2.27	2.31	2.30	2.30	2.33	2.29	2.12	1.83	1.64	1.66	1.73	1.73
2.36	2.33	2.24	2.29	2.41	2.33	2.11	2.01	2.03	2.08	2.11	2.12	2.09	1.98	1.81	1.69	1.66	1.69	1.74	1.77	1.83	2.06	2.37	2.47	2.32	2.16	2.12	2.12	2.11	2.07	2.03	1.94	1.83	1.82	1.89	1.95	2.00	2.00	1.95	1.93	2.03	2.23	2.31	2.13	1.81	1.63	1.71	2.01	2.24	2.21	2.05	2.04	2.18	2.25	2.20	2.10	1.94	1.80	1.86	1.96	1.95	2.06	2.27	2.43	2.50	2.37	2.03	1.72	1.60	1.64	1.76	1.96	2.24	2.42	2.39	2.26	2.15	2.07	2.02	1.99	2.03	2.11	2.06	1.93	1.95	2.06	2.04	1.95	1.94	1.98	2.06	2.13	2.10	1.98	1.89	1.85	1.85	1.85	1.85	1.85	1.88	1.92	1.93	1.94	1.94	1.92	1.90	1.90	1.96	2.10	2.21	2.20	2.20	2.25	2.28	2.26	2.26	2.27	2.22	2.05	1.80	1.64	1.72	1.82	1.82
