ncols	125
nrows	152
xllcorner	-2042055
yllcorner	1465035
cellsize	30.000000
NODATA_value	-9999.000000
6.72	6.59	5.90	4.84	3.93	3.98	4.40	4.36	4.03	3.79	3.71	3.68	3.81	4.08	4.70	5.11	4.91	4.42	4.05	3.99	4.25	4.60	4.81	4.75	4.46	4.11	3.87	3.90	4.06	4.04	3.88	3.91	4.38	4.77	4.73	4.50	4.18	3.81	3.72	3.88	3.90	3.83	3.97	4.45	5.25	6.41	7.02	7.22	7.23	6.88	6.12	5.44	5.12	5.09	5.00	4.72	4.35	4.26	4.57	5.10	5.73	6.33	6.53	6.31	5.97	5.80	5.89	6.31	6.90	7.26	7.08	6.53	5.98	5.69	5.58	5.50	5.35	5.11	5.11	5.41	5.60	5.26	4.46	3.76	3.36	3.14	2.98	2.86	2.88	3.12	3.52	3.81	4.08	4.47	4.70	4.60	4.40	4.31	4.37	4.66	5.17	5.38	4.92	4.85	5.99	6.52	5.94	5.38	5.28	5.30	5.41	5.48	5.86	6.62	7.06	6.98	6.82	6.38	5.52	4.88	4.34	3.78	4.03	4.51	4.51
6.80	6.43	5.81	5.30	4.62	4.35	4.43	4.25	3.81	3.57	3.34	3.08	2.95	2.93	3.40	4.35	4.83	4.76	4.56	4.48	4.56	4.72	4.91	4.99	4.83	4.52	4.27	4.23	4.43	4.58	4.32	3.93	4.09	4.72	5.12	5.19	4.97	4.43	4.05	4.23	4.48	4.54	4.53	4.71	5.23	6.10	6.93	7.59	7.84	7.52	6.71	6.03	5.69	5.54	5.36	5.07	4.76	4.74	4.94	5.17	5.60	6.26	6.80	6.96	6.74	6.35	6.21	6.48	7.09	7.65	7.82	7.44	6.60	6.24	6.22	6.17	6.01	5.79	5.69	5.81	5.89	5.64	5.08	4.48	4.02	3.63	3.27	2.99	2.92	3.03	3.29	3.54	3.70	3.99	4.27	4.36	4.32	4.25	4.27	4.61	5.28	5.31	4.51	4.38	5.43	6.12	5.79	5.40	5.22	5.09	5.05	5.02	5.36	6.10	6.64	6.64	6.70	7.07	6.94	6.24	5.57	4.86	4.36	4.23	4.23
7.16	6.58	5.73	5.46	5.39	5.26	5.04	4.67	4.29	4.09	3.95	3.73	3.52	3.24	3.20	3.67	4.37	4.77	4.88	4.94	4.97	5.01	5.11	5.22	5.14	4.89	4.68	4.57	4.67	5.00	5.05	4.54	4.17	4.40	4.95	5.46	5.62	5.27	4.70	4.62	4.95	5.10	5.12	5.13	5.30	5.80	6.64	7.60	8.16	8.05	7.28	6.49	6.03	5.82	5.60	5.33	5.22	5.20	5.27	5.35	5.52	5.92	6.48	6.96	7.08	6.74	6.21	5.95	6.41	7.41	8.33	8.59	7.88	7.41	7.31	7.27	7.25	7.10	6.98	6.91	6.72	6.26	5.70	5.19	4.61	4.10	3.62	3.17	2.97	2.99	3.12	3.31	3.50	3.87	4.42	4.83	4.99	4.98	4.95	5.13	5.58	5.58	4.68	4.23	5.01	5.84	5.67	5.29	5.12	5.01	4.89	4.83	4.97	5.43	6.04	6.15	5.83	6.28	7.03	7.11	6.75	6.17	5.25	4.68	4.68
7.36	6.98	6.15	5.76	5.90	6.09	5.87	5.42	5.13	5.02	5.01	4.99	4.84	4.44	3.95	3.78	4.10	4.60	4.93	5.08	5.21	5.30	5.40	5.48	5.36	5.14	4.97	4.82	4.75	5.09	5.53	5.46	5.00	4.67	4.81	5.42	6.01	6.05	5.67	5.36	5.35	5.46	5.48	5.34	5.17	5.31	5.88	6.83	7.86	8.09	7.68	6.96	6.43	6.09	5.82	5.50	5.37	5.38	5.42	5.35	5.24	5.23	5.50	6.06	6.62	6.72	6.23	5.43	5.24	6.24	7.92	8.79	8.96	8.71	8.52	8.61	8.81	8.90	8.87	8.72	8.40	7.60	6.61	5.80	5.11	4.46	3.86	3.30	3.07	3.09	3.17	3.31	3.58	4.08	4.84	5.36	5.59	5.63	5.57	5.59	5.75	5.85	5.28	4.54	4.80	5.59	5.49	4.97	4.81	4.98	5.19	5.13	4.80	4.60	5.07	5.64	5.32	4.95	5.71	6.56	6.85	6.76	6.00	5.37	5.37
7.41	7.15	6.39	5.81	6.02	6.26	6.22	6.01	5.89	5.82	5.80	5.78	5.71	5.38	4.90	4.47	4.38	4.62	4.92	5.13	5.34	5.57	5.77	5.87	5.70	5.41	5.24	5.11	4.88	4.97	5.54	5.95	5.93	5.71	5.58	5.84	6.34	6.53	6.35	6.01	5.79	5.67	5.56	5.39	5.18	5.10	5.28	5.91	7.03	7.61	7.56	7.18	6.79	6.41	6.05	5.61	5.40	5.44	5.36	5.17	4.85	4.53	4.44	4.80	5.51	6.01	5.98	5.33	4.52	4.73	6.24	7.68	8.39	8.59	8.73	8.98	9.18	9.34	9.45	9.64	9.73	9.26	7.98	6.58	5.54	4.89	4.37	3.94	3.63	3.55	3.51	3.54	3.76	4.18	4.73	5.17	5.45	5.53	5.56	5.63	5.57	5.64	5.54	5.01	4.90	5.41	5.52	5.04	4.65	4.86	5.45	5.42	4.69	3.86	4.08	4.98	5.21	4.51	4.34	5.02	5.73	6.28	6.17	5.89	5.89
7.58	7.15	6.23	5.68	5.82	6.15	6.25	6.18	6.12	6.03	5.91	5.86	5.85	5.74	5.51	5.17	4.91	4.85	4.99	5.23	5.50	5.82	6.16	6.38	6.32	5.96	5.73	5.58	5.27	5.09	5.44	6.04	6.39	6.49	6.47	6.46	6.59	6.66	6.50	6.20	5.91	5.67	5.48	5.35	5.25	5.17	5.19	5.53	6.30	6.91	7.22	7.28	7.23	7.01	6.56	5.99	5.64	5.44	5.30	5.00	4.59	4.12	3.71	3.61	4.14	4.60	4.82	4.58	3.77	3.34	3.97	5.27	6.33	6.99	7.50	7.82	7.90	8.02	8.42	8.99	9.83	10.12	9.46	7.71	6.31	5.70	5.43	5.13	4.70	4.20	3.89	3.76	3.77	3.82	4.00	4.38	4.84	5.13	5.39	5.50	5.20	5.21	5.38	5.23	5.15	5.50	5.89	5.77	5.09	4.84	5.47	5.60	4.67	3.63	3.41	4.13	5.00	4.89	4.33	4.20	4.51	5.34	5.90	5.93	5.93
7.66	7.09	6.23	5.91	5.99	6.20	6.20	6.07	5.95	5.74	5.57	5.48	5.42	5.49	5.54	5.43	5.21	5.05	5.09	5.36	5.73	6.15	6.60	6.96	7.08	6.84	6.51	6.28	5.98	5.68	5.70	6.05	6.38	6.50	6.46	6.38	6.40	6.34	6.21	5.94	5.68	5.54	5.43	5.29	5.20	5.19	5.28	5.56	5.84	6.32	6.71	6.99	7.32	7.57	7.28	6.63	6.01	5.63	5.39	4.98	4.51	3.99	3.34	2.99	3.14	3.33	3.32	3.24	2.74	2.01	2.14	2.98	3.94	4.60	5.08	5.52	5.48	5.63	6.10	6.74	8.35	9.96	10.29	9.17	7.54	6.46	5.91	5.53	5.13	4.50	3.98	3.80	3.70	3.53	3.48	3.82	4.46	5.02	5.51	5.57	5.14	5.01	5.27	5.29	5.19	5.49	6.14	6.56	6.18	5.53	5.81	5.78	4.76	3.69	3.07	3.21	4.18	4.81	4.89	4.63	4.37	4.85	5.55	5.71	5.71
7.19	6.97	6.76	6.64	6.50	6.42	6.21	5.91	5.57	5.40	5.27	5.08	4.93	4.96	5.12	5.23	5.19	5.10	5.17	5.40	5.76	6.20	6.68	7.16	7.41	7.40	7.17	6.92	6.67	6.35	6.10	6.00	6.02	6.02	5.84	5.66	5.75	5.86	5.84	5.59	5.33	5.33	5.33	5.29	5.24	5.16	5.29	5.38	5.48	5.81	6.09	6.47	6.97	7.45	7.58	7.22	6.58	6.03	5.60	5.21	4.74	4.11	3.57	3.21	3.06	3.00	2.84	2.68	2.26	1.56	1.26	1.70	2.51	3.06	3.27	3.61	3.84	4.18	4.53	4.99	6.43	8.56	9.96	9.88	8.57	6.83	5.53	4.80	4.49	4.11	3.79	3.69	3.65	3.59	3.64	3.99	4.51	5.13	5.70	5.74	5.28	5.19	5.48	5.57	5.25	5.19	5.76	6.64	6.87	6.65	6.58	6.27	5.02	3.97	3.21	2.78	2.97	3.62	4.41	4.88	4.82	4.84	5.27	5.45	5.45
6.34	6.59	6.96	7.05	6.95	6.74	6.35	5.93	5.39	5.17	5.08	4.84	4.63	4.58	4.68	4.90	5.01	5.05	5.12	5.15	5.20	5.41	5.83	6.40	6.88	7.15	7.17	7.02	6.80	6.51	6.13	5.73	5.45	5.38	5.27	5.09	5.18	5.40	5.42	5.31	5.20	5.21	5.24	5.30	5.24	5.21	5.29	5.22	5.17	5.29	5.44	5.66	6.07	6.64	7.17	7.38	7.17	6.66	6.10	5.73	5.32	4.73	4.25	3.85	3.46	3.18	3.02	2.85	2.46	1.87	1.40	1.34	1.73	2.23	2.34	2.41	2.78	3.41	3.68	3.82	4.88	6.68	8.68	9.72	9.23	7.32	5.59	4.57	4.13	3.90	3.69	3.57	3.54	3.62	3.81	4.13	4.45	5.09	5.79	5.91	5.55	5.45	5.81	5.91	5.61	5.28	5.37	6.06	6.71	7.03	7.36	7.08	5.70	4.70	3.97	3.28	2.87	2.81	3.22	4.17	4.81	4.93	5.07	5.18	5.18
5.49	5.90	6.63	7.11	7.29	7.05	6.53	5.97	5.45	5.10	4.91	4.64	4.41	4.32	4.40	4.61	4.82	4.93	4.95	4.82	4.61	4.53	4.71	5.13	5.78	6.31	6.58	6.58	6.43	6.17	5.82	5.41	5.06	4.89	4.79	4.72	4.87	5.11	5.15	5.10	5.15	5.25	5.34	5.25	5.25	5.40	5.42	5.33	5.11	4.92	4.95	5.13	5.41	5.86	6.50	7.17	7.49	7.37	6.91	6.46	6.08	5.66	5.24	4.77	4.24	3.77	3.55	3.33	2.94	2.50	1.99	1.59	1.60	1.86	1.90	1.77	1.98	2.53	2.74	2.79	3.52	4.84	6.92	8.94	9.44	8.28	6.55	5.27	4.55	4.11	3.76	3.52	3.42	3.44	3.49	3.65	4.10	4.87	5.68	5.94	5.66	5.41	5.61	5.78	5.67	5.39	5.21	5.59	6.24	6.64	7.41	7.59	6.61	5.60	4.99	4.53	4.21	3.87	3.48	3.69	4.39	4.87	5.02	5.11	5.11
4.78	4.97	5.78	6.76	7.44	7.53	6.90	6.02	5.48	5.08	4.75	4.48	4.22	4.11	4.20	4.42	4.69	4.85	4.92	4.87	4.73	4.63	4.66	4.85	5.22	5.66	5.96	6.02	5.94	5.80	5.60	5.34	5.01	4.76	4.60	4.61	4.83	5.08	5.04	4.90	5.02	5.31	5.39	5.33	5.30	5.42	5.62	5.65	5.36	4.93	4.67	4.68	4.85	5.23	5.94	6.78	7.49	7.85	7.79	7.36	6.91	6.53	6.11	5.60	5.09	4.66	4.35	4.01	3.59	3.16	2.73	2.24	1.95	1.97	1.91	1.67	1.65	1.91	1.96	1.93	2.41	3.39	5.04	7.39	8.91	8.90	7.46	5.84	4.80	4.20	3.77	3.51	3.40	3.36	3.29	3.36	3.82	4.64	5.40	5.61	5.15	4.90	5.02	5.20	5.16	5.04	5.03	5.34	5.76	6.05	6.74	7.27	7.05	6.44	5.93	5.57	5.36	5.23	4.88	4.35	4.48	4.89	5.15	5.27	5.27
4.38	4.43	4.96	6.05	7.29	7.98	7.70	6.65	5.85	5.35	4.90	4.61	4.39	4.22	4.22	4.38	4.64	4.92	5.14	5.26	5.29	5.29	5.32	5.37	5.37	5.46	5.62	5.65	5.60	5.62	5.56	5.39	5.19	5.05	4.94	4.81	4.85	5.14	5.18	4.89	4.84	5.08	5.32	5.39	5.26	5.33	5.66	5.91	5.81	5.31	4.65	4.20	4.17	4.55	5.33	6.34	7.24	7.95	8.27	8.13	7.74	7.33	6.96	6.57	6.17	5.71	5.25	4.91	4.55	4.15	3.63	3.13	2.72	2.55	2.32	1.96	1.82	1.86	1.69	1.45	1.61	2.29	3.45	5.42	7.58	8.65	8.12	6.44	5.00	4.25	3.80	3.53	3.44	3.41	3.34	3.35	3.75	4.51	5.12	5.15	4.78	4.41	4.46	4.66	4.69	4.73	4.93	5.19	5.39	5.56	5.99	6.44	6.77	6.88	6.49	5.89	5.48	5.43	5.46	5.20	5.07	5.26	5.49	5.51	5.51
4.28	4.24	4.43	5.24	6.56	7.89	8.34	7.72	6.77	6.12	5.63	5.22	5.03	4.85	4.67	4.58	4.67	4.93	5.26	5.51	5.60	5.57	5.51	5.45	5.37	5.36	5.46	5.45	5.32	5.40	5.58	5.59	5.44	5.40	5.42	5.29	5.07	5.20	5.44	5.21	4.86	4.86	5.13	5.21	5.10	5.12	5.45	5.96	6.24	5.98	5.10	4.17	3.71	3.89	4.71	5.76	6.70	7.57	8.06	8.16	8.05	7.83	7.78	7.81	7.61	7.23	6.65	6.11	5.82	5.49	4.88	4.20	3.72	3.44	3.07	2.63	2.36	2.18	1.86	1.46	1.26	1.48	2.28	3.72	5.69	7.63	8.23	7.33	5.62	4.46	3.83	3.49	3.36	3.34	3.33	3.35	3.76	4.46	4.93	5.15	5.08	4.71	4.47	4.54	4.60	4.73	5.00	5.21	5.30	5.39	5.49	5.60	5.86	6.45	6.58	5.94	5.25	4.98	5.16	5.31	5.37	5.59	5.80	5.81	5.81
4.46	4.11	3.86	4.28	5.30	7.07	8.24	8.32	7.57	6.80	6.26	5.77	5.50	5.37	5.19	4.90	4.70	4.74	4.96	5.19	5.29	5.23	5.06	4.94	4.94	5.05	5.24	5.31	5.20	5.28	5.54	5.77	5.77	5.64	5.68	5.75	5.57	5.42	5.65	5.60	5.19	4.95	5.05	4.98	4.85	4.81	5.05	5.67	6.40	6.66	6.09	4.87	3.77	3.47	3.98	5.00	6.05	6.94	7.42	7.64	7.58	7.51	7.78	8.22	8.68	8.78	8.37	7.72	7.17	6.77	6.24	5.56	5.05	4.54	4.03	3.59	3.25	2.88	2.45	1.97	1.47	1.22	1.53	2.43	3.93	5.92	7.50	7.72	6.57	5.05	4.04	3.47	3.24	3.23	3.30	3.39	3.84	4.44	4.88	5.38	5.83	5.71	5.31	5.01	4.89	4.99	5.23	5.45	5.54	5.41	5.30	5.07	4.68	5.35	6.22	6.18	5.52	4.91	4.82	4.93	5.05	5.33	5.77	6.06	6.06
4.95	4.48	3.89	3.73	4.25	5.72	7.40	8.20	7.98	7.21	6.42	5.73	5.29	5.12	5.06	4.89	4.63	4.51	4.49	4.50	4.60	4.62	4.54	4.49	4.55	4.71	4.93	5.05	5.01	5.13	5.47	5.80	5.95	5.94	5.91	6.01	6.04	5.88	5.83	5.88	5.67	5.38	5.13	4.88	4.57	4.37	4.41	4.97	6.02	6.86	6.95	6.13	4.60	3.67	3.74	4.52	5.56	6.41	6.79	6.95	6.80	6.72	6.99	7.62	8.45	9.06	9.16	8.98	8.60	8.20	7.88	7.54	7.03	6.16	5.26	4.76	4.42	4.01	3.41	2.84	2.20	1.58	1.33	1.65	2.59	4.05	5.86	7.13	7.15	6.08	4.71	3.73	3.32	3.24	3.35	3.51	3.95	4.47	4.86	5.47	6.16	6.49	6.31	5.88	5.58	5.54	5.64	5.75	5.65	5.45	5.25	4.71	4.05	4.29	5.27	5.85	5.70	5.08	4.75	4.56	4.38	4.48	5.22	5.85	5.85
5.37	5.21	4.71	4.06	3.87	4.68	6.25	7.59	8.07	7.71	6.82	5.90	5.21	4.77	4.65	4.65	4.48	4.38	4.20	4.03	4.08	4.19	4.23	4.25	4.34	4.50	4.61	4.50	4.36	4.57	5.06	5.42	5.74	5.97	6.09	6.19	6.24	6.11	5.99	5.99	5.95	5.66	5.38	5.00	4.49	3.95	3.77	4.11	5.04	6.33	7.12	7.00	5.84	4.45	4.05	4.39	5.10	5.83	6.23	6.44	6.28	5.77	5.41	5.75	6.67	7.83	8.70	9.17	9.36	9.26	9.18	9.14	8.94	8.30	7.17	6.34	5.76	5.18	4.49	3.69	2.98	2.31	1.76	1.55	1.80	2.53	3.84	5.49	6.56	6.57	5.69	4.48	3.69	3.41	3.46	3.71	4.16	4.63	4.98	5.45	6.14	6.79	7.02	6.85	6.60	6.43	6.32	6.15	5.81	5.42	5.08	4.47	3.81	3.64	4.03	4.79	5.12	5.00	4.91	4.75	4.41	4.16	4.57	5.01	5.01
5.32	5.30	5.20	4.67	4.01	4.06	5.16	6.65	7.74	8.06	7.62	6.73	5.88	5.15	4.73	4.51	4.42	4.29	4.08	3.97	4.06	4.20	4.30	4.33	4.35	4.50	4.52	4.11	3.57	3.55	4.05	4.47	4.84	5.27	5.66	5.94	6.01	6.01	5.94	5.94	5.90	5.71	5.51	5.24	4.83	4.20	3.64	3.51	4.03	5.13	6.49	7.14	6.70	5.30	4.45	4.31	4.63	5.20	5.74	6.10	6.02	5.16	4.34	4.22	4.77	5.91	7.21	8.11	8.69	8.96	9.13	9.45	9.74	9.67	9.05	8.14	7.16	6.18	5.24	4.40	3.69	3.10	2.57	2.08	1.81	1.84	2.32	3.35	4.77	5.79	5.89	5.24	4.30	3.64	3.58	3.87	4.31	4.80	5.27	5.69	6.17	6.81	7.29	7.46	7.40	7.23	7.09	6.84	6.25	5.40	4.80	4.40	3.97	3.73	3.67	3.86	4.29	4.65	5.01	5.38	5.58	5.22	4.98	4.91	4.91
5.07	4.92	4.74	4.48	3.97	3.62	4.13	5.42	6.81	7.72	7.93	7.42	6.57	5.73	5.14	4.70	4.44	4.24	4.15	4.21	4.40	4.79	4.72	4.70	4.58	4.69	4.74	4.29	3.50	3.04	3.14	3.44	3.65	4.03	4.59	5.10	5.41	5.56	5.68	5.84	5.82	5.65	5.36	5.09	4.88	4.52	3.82	3.21	3.22	3.97	5.25	6.65	6.83	5.80	4.71	4.23	4.30	4.75	5.50	6.11	5.97	4.78	3.58	3.28	3.66	4.59	5.60	6.31	7.00	7.43	7.63	8.10	8.90	9.50	9.62	9.44	8.68	7.30	6.01	5.17	4.55	3.95	3.41	2.94	2.45	2.03	1.93	2.13	2.79	3.87	4.73	4.92	4.45	3.78	3.60	3.84	4.17	4.55	5.04	5.47	5.82	6.29	6.83	7.21	7.35	7.40	7.56	7.62	7.14	5.87	4.97	4.68	4.57	4.53	4.48	4.31	4.27	4.44	4.77	5.38	6.00	6.21	5.91	5.65	5.65
5.63	5.13	4.34	3.87	3.48	2.99	2.97	3.93	5.24	6.57	7.43	7.54	6.94	6.06	5.38	4.85	4.49	4.34	4.44	5.08	5.02	5.30	5.46	5.34	5.15	5.23	5.30	5.02	4.24	3.38	3.15	3.22	3.19	3.27	3.69	4.28	4.81	5.05	5.33	5.68	5.83	5.68	5.14	4.51	4.06	3.91	3.55	2.81	2.38	2.88	4.02	5.65	6.48	5.87	4.73	4.20	4.18	4.65	5.55	6.40	6.26	4.68	3.23	2.59	2.76	3.61	4.49	4.95	5.48	5.95	5.69	5.89	6.97	8.19	9.09	9.82	9.97	8.98	7.33	6.15	5.36	4.80	4.29	3.81	3.26	2.77	2.37	2.11	2.09	2.38	3.01	3.70	3.89	3.61	3.45	3.62	3.87	4.09	4.41	4.83	5.17	5.53	6.02	6.53	6.84	7.07	7.51	8.11	8.09	6.95	5.65	4.96	4.79	4.85	5.00	4.99	4.78	4.56	4.46	4.64	5.14	5.65	5.87	5.92	5.92
6.63	5.86	4.65	3.92	3.31	2.74	2.45	2.78	3.71	5.04	6.34	7.15	7.14	6.39	5.58	4.97	4.64	4.60	5.23	5.23	5.65	5.99	6.22	6.19	6.03	6.03	6.09	5.84	5.21	4.31	3.73	3.60	3.50	3.34	3.42	3.83	4.32	4.63	5.01	5.53	5.92	5.89	5.26	4.21	3.60	3.42	3.18	2.58	2.00	2.02	2.91	4.60	5.90	5.75	4.68	4.26	4.27	4.78	5.78	6.83	6.71	5.17	3.57	2.47	2.15	2.55	3.39	3.97	4.55	5.12	4.85	4.58	5.47	6.81	7.64	8.81	10.07	10.18	9.06	7.41	6.18	5.66	5.36	4.87	4.25	3.77	3.46	3.09	2.65	2.40	2.48	2.80	3.14	3.26	3.25	3.36	3.60	3.86	4.16	4.54	4.91	5.21	5.56	5.99	6.39	6.70	7.18	8.00	8.33	7.54	5.93	4.83	4.31	4.19	4.40	4.57	4.68	4.72	4.70	4.78	4.99	5.22	5.57	5.81	5.81
7.15	6.45	5.37	4.75	4.21	3.51	2.89	2.59	2.84	3.72	4.91	6.18	6.87	6.66	5.85	5.12	4.80	4.84	5.15	5.64	6.11	6.52	6.88	7.05	7.07	7.03	6.93	6.65	6.07	5.12	4.22	3.90	3.96	3.94	3.81	3.81	4.06	4.41	4.89	5.50	6.10	6.25	5.69	4.67	3.97	3.63	3.40	3.06	2.43	2.01	2.26	3.68	5.32	5.59	4.73	4.35	4.36	4.88	5.90	7.02	7.03	5.88	4.21	2.81	1.99	1.88	2.43	3.09	3.78	4.60	4.59	4.16	4.71	5.85	6.29	7.07	8.84	10.15	10.23	9.21	7.82	7.23	6.87	6.24	5.55	5.00	4.61	4.24	3.82	3.37	3.09	3.04	3.15	3.26	3.29	3.31	3.45	3.66	3.93	4.29	4.62	4.85	5.13	5.53	5.99	6.40	6.78	7.49	8.06	7.56	6.14	5.01	4.31	3.80	3.71	3.94	4.32	4.75	5.18	5.60	5.87	6.01	6.08	6.10	6.10
7.13	6.70	5.89	5.42	5.10	4.59	3.92	3.20	2.85	3.06	3.73	4.76	5.93	6.40	6.03	5.29	4.87	4.88	5.29	5.77	6.25	6.72	7.19	7.59	7.77	7.84	7.82	7.63	7.11	6.10	4.82	4.04	4.00	4.30	4.56	4.52	4.37	4.52	4.98	5.57	6.34	6.76	6.39	5.58	4.90	4.42	4.17	3.91	3.42	2.59	2.30	2.95	4.68	5.32	4.75	4.39	4.41	4.93	5.86	6.97	7.25	6.45	4.94	3.51	2.37	1.75	1.81	2.35	3.01	3.94	4.25	3.86	4.31	5.22	5.35	5.59	6.97	8.96	10.16	10.32	9.79	9.22	8.58	7.77	6.93	6.09	5.46	4.91	4.39	3.98	3.68	3.58	3.61	3.61	3.59	3.56	3.54	3.50	3.45	3.54	3.86	4.18	4.60	5.16	5.72	6.07	6.36	7.12	7.66	7.28	6.21	5.49	5.02	4.54	4.15	4.02	4.21	4.51	4.85	5.23	5.65	6.03	6.39	6.64	6.64
6.97	6.73	6.08	5.61	5.34	5.01	4.56	3.88	3.29	3.02	3.18	3.74	4.65	5.59	5.77	5.34	4.85	4.67	4.88	5.32	5.76	6.20	6.68	7.19	7.57	7.89	8.17	8.35	8.16	7.33	5.94	4.63	4.06	4.21	4.62	4.91	4.93	4.89	5.04	5.54	6.40	7.12	7.41	6.89	6.05	5.36	4.97	4.59	4.09	3.33	2.62	2.69	3.90	4.90	4.69	4.40	4.44	4.98	5.82	6.83	7.26	6.84	5.76	4.55	3.32	2.32	1.83	1.89	2.36	3.29	3.77	3.46	3.87	4.78	4.71	4.52	5.43	7.15	8.88	9.68	9.92	9.94	9.72	9.09	7.93	6.68	5.99	5.53	5.01	4.55	4.17	3.88	3.86	3.97	3.99	3.89	3.77	3.67	3.57	3.46	3.46	3.73	4.28	4.96	5.58	5.92	6.31	7.08	7.34	6.83	5.92	5.49	5.30	5.07	4.71	4.33	4.13	4.02	3.92	3.88	4.17	4.87	6.04	6.78	6.78
6.88	6.65	6.08	5.56	5.16	4.94	4.69	4.19	3.64	3.22	3.28	3.29	3.77	4.54	5.18	5.08	4.80	4.38	4.19	4.38	4.70	5.00	5.36	5.88	6.49	7.07	7.68	8.28	8.55	8.24	7.19	5.82	4.77	4.31	4.38	4.80	5.13	5.19	5.25	5.42	5.94	6.88	7.65	7.76	7.24	6.34	5.47	4.75	4.19	3.49	2.85	2.65	3.27	4.37	4.55	4.42	4.49	5.02	5.85	6.77	7.24	6.81	5.98	5.19	4.25	3.20	2.25	1.75	1.81	2.60	3.22	3.06	3.32	4.33	4.32	3.78	4.20	5.58	7.05	7.90	8.28	9.05	9.91	10.05	8.85	7.30	6.58	6.39	6.21	5.92	5.54	5.08	4.75	4.53	4.41	4.21	4.02	4.04	4.23	4.46	4.36	4.20	4.51	5.10	5.64	6.18	6.82	7.29	7.25	6.47	5.47	5.04	4.88	4.76	4.59	4.33	4.14	4.02	3.95	3.86	3.80	4.09	5.21	6.09	6.09
6.93	6.63	6.00	5.42	4.97	4.75	4.58	4.27	3.88	3.59	3.46	3.47	3.61	4.23	4.69	4.69	4.74	4.35	3.92	3.53	3.66	3.92	4.19	4.61	5.34	6.17	6.90	7.67	8.38	8.65	8.13	6.95	5.75	4.94	4.71	4.96	5.26	5.53	5.66	5.50	5.36	5.88	7.01	7.84	7.95	7.29	6.15	5.31	4.64	3.82	3.13	2.79	3.04	3.92	4.35	4.39	4.55	5.13	5.98	6.95	7.32	6.59	5.37	4.78	4.27	3.58	2.73	1.94	1.52	1.87	2.61	2.66	2.82	3.74	3.99	3.31	3.25	4.28	5.66	6.23	6.11	7.03	9.15	10.38	10.11	8.65	7.58	7.22	7.16	7.09	6.90	6.56	6.06	5.35	4.82	4.52	4.26	4.17	4.45	5.16	5.61	5.56	5.50	5.80	6.24	6.81	7.44	7.78	7.52	6.62	5.40	4.82	4.53	4.26	4.14	4.13	4.19	4.37	4.78	5.08	4.99	4.75	5.02	5.37	5.37
7.07	6.74	6.01	5.36	5.03	4.79	4.64	4.48	4.29	4.17	4.09	4.08	4.07	4.17	4.79	4.92	4.66	4.43	3.85	3.32	3.32	3.58	3.82	4.10	4.70	5.41	6.10	6.85	7.70	8.42	8.52	7.80	6.70	5.87	5.40	5.33	5.56	5.90	6.10	5.93	5.36	5.05	5.72	7.19	8.08	8.03	7.10	6.38	5.85	5.13	4.18	3.42	3.26	3.69	4.10	4.17	4.37	5.01	6.07	7.32	7.77	6.80	5.01	4.22	3.83	3.37	2.93	2.36	1.75	1.58	1.93	2.10	2.31	3.14	3.66	3.10	2.74	3.30	4.62	5.24	4.85	5.33	7.51	9.68	10.27	9.49	8.32	7.57	7.23	7.12	7.00	6.81	6.56	6.06	5.30	4.79	4.39	4.03	4.02	4.70	5.66	6.14	6.27	6.40	6.58	6.96	7.76	8.30	8.06	7.05	5.80	5.09	4.76	4.46	4.11	3.99	4.04	4.28	4.90	5.68	6.12	6.17	5.95	5.80	5.80
7.27	6.93	6.23	5.67	5.40	5.20	4.98	4.81	4.69	4.63	4.60	4.55	4.51	4.59	4.69	4.69	4.70	4.67	4.31	3.83	3.70	3.85	4.01	4.14	4.38	4.83	5.30	5.88	6.72	7.61	8.30	8.04	7.24	6.47	5.99	5.69	5.60	5.75	6.08	6.27	5.82	5.00	4.94	6.11	7.69	8.12	7.47	6.67	6.38	6.12	5.52	4.49	3.71	3.62	3.85	3.93	4.06	4.62	5.85	7.57	8.33	7.46	5.55	4.40	3.87	3.41	3.10	2.77	2.30	1.87	1.69	1.56	1.70	2.47	3.19	2.87	2.41	2.73	3.90	4.64	4.36	4.38	5.61	7.69	9.19	9.31	8.69	7.62	6.89	6.59	6.43	6.22	6.07	5.93	5.55	4.98	4.45	3.98	3.73	3.98	4.86	5.55	5.94	6.13	6.22	6.43	7.46	8.50	8.54	7.50	6.20	5.35	4.91	4.64	4.26	4.00	3.93	4.03	4.39	5.14	5.90	6.32	6.47	6.48	6.48
7.33	7.04	6.47	6.05	5.79	5.58	5.31	5.06	4.94	4.91	4.90	4.82	4.69	4.81	5.01	5.08	5.08	5.08	4.91	4.58	4.40	4.43	4.49	4.56	4.72	4.94	5.16	5.45	5.99	6.69	7.57	7.70	7.31	6.82	6.47	5.99	5.35	4.98	5.31	5.99	6.04	5.24	4.62	5.33	7.01	7.85	7.39	6.17	5.74	5.78	5.69	5.09	4.21	3.68	3.74	3.95	4.16	4.57	5.55	7.51	8.65	8.24	6.60	5.22	4.43	3.91	3.52	3.14	2.78	2.43	2.04	1.58	1.34	1.80	2.47	2.29	1.86	2.07	3.10	3.99	4.00	4.00	4.60	5.96	7.62	8.71	8.70	7.77	6.91	6.55	6.41	6.19	5.77	5.49	5.36	5.05	4.61	4.22	3.80	3.58	3.87	4.37	4.75	5.14	5.36	5.53	6.73	8.21	8.56	7.99	6.89	5.77	4.98	4.54	4.28	4.10	4.01	3.97	4.02	4.40	4.97	5.29	6.11	6.66	6.66
7.26	6.99	6.50	6.15	5.97	5.83	5.63	5.41	5.25	5.18	5.17	5.09	4.91	5.26	5.11	5.23	5.30	5.34	5.26	5.01	4.87	4.94	5.01	5.01	5.09	5.22	5.36	5.51	5.76	6.09	6.75	7.08	6.94	6.65	6.55	6.37	5.67	4.76	4.54	5.24	5.90	5.57	4.74	4.87	6.43	7.62	7.34	5.88	4.82	4.45	4.42	4.45	4.14	3.70	3.70	4.11	4.56	5.02	5.85	7.42	8.75	8.77	7.56	6.23	5.19	4.53	4.10	3.69	3.32	2.95	2.60	2.13	1.66	1.65	1.90	1.76	1.29	1.28	2.06	2.99	3.30	3.61	4.10	4.87	6.22	7.91	8.45	7.65	6.67	6.28	6.35	6.46	6.22	5.66	5.36	5.11	4.76	4.38	3.85	3.27	3.02	3.39	3.88	4.40	4.75	5.02	6.13	7.47	8.05	8.12	7.87	7.03	5.92	5.08	4.53	4.25	4.14	4.02	3.87	4.01	4.41	4.69	5.38	6.04	6.04
7.13	6.89	6.46	6.20	6.12	6.13	6.10	5.98	5.77	5.57	5.48	5.40	5.21	5.29	5.19	5.29	5.36	5.42	5.36	5.12	4.92	4.95	5.05	5.08	5.10	5.17	5.30	5.44	5.60	5.75	6.22	6.57	6.52	6.05	6.04	6.40	6.34	5.52	4.49	4.46	5.25	5.56	5.04	4.80	6.00	7.43	7.33	5.91	4.55	3.87	3.59	3.54	3.50	3.34	3.52	4.05	4.69	5.30	6.04	7.23	8.61	9.02	8.20	6.88	5.71	5.05	4.62	4.24	3.82	3.34	2.99	2.72	2.37	2.03	1.90	1.71	1.29	0.96	1.18	1.80	2.20	2.78	3.40	4.08	5.18	6.99	8.12	7.68	6.23	5.31	5.21	5.64	6.01	5.90	5.61	5.33	4.97	4.59	4.23	3.78	3.42	3.34	3.56	3.99	4.46	5.01	5.96	6.80	7.20	7.46	7.92	7.91	7.06	5.85	4.84	4.34	4.22	4.25	4.33	4.58	4.97	5.31	5.44	5.50	5.50
6.95	6.81	6.55	6.38	6.28	6.25	6.25	6.25	6.14	5.93	5.78	5.65	5.52	5.46	5.56	5.60	5.57	5.55	5.45	5.17	4.79	4.60	4.66	4.79	4.94	5.06	5.15	5.26	5.41	5.48	5.85	6.28	6.31	5.64	5.21	5.80	6.47	6.37	5.25	4.39	4.57	5.20	5.12	4.85	5.80	7.33	7.46	6.16	4.98	4.35	3.91	3.50	3.10	2.87	3.13	3.71	4.34	4.99	5.66	6.74	8.21	9.06	8.69	7.46	6.32	5.60	5.06	4.61	4.15	3.73	3.43	3.27	3.08	2.80	2.50	2.19	1.77	1.29	0.58	1.06	1.27	1.76	2.59	3.45	4.47	6.03	7.68	8.00	6.76	5.11	4.37	4.53	5.14	5.57	5.64	5.54	5.33	5.04	4.81	4.68	4.49	4.15	3.82	3.79	4.18	5.03	5.90	6.41	6.49	6.32	6.90	7.72	7.67	6.58	5.28	4.57	4.35	4.44	4.81	5.37	5.92	6.35	6.21	5.92	5.92
6.65	6.61	6.52	6.41	6.25	6.08	5.92	5.90	5.97	5.95	5.84	5.66	5.64	5.70	5.83	5.88	5.83	5.73	5.57	5.27	4.83	4.48	4.40	4.51	4.75	4.95	5.07	5.18	5.26	5.25	5.52	6.08	6.34	5.60	4.61	4.78	5.75	6.48	6.12	5.00	4.42	4.74	5.01	5.11	5.94	7.33	7.54	6.44	5.37	4.74	4.29	3.82	3.28	2.85	2.98	3.34	3.93	4.62	5.32	6.38	7.84	8.99	8.95	7.96	6.85	6.02	5.26	4.82	4.55	4.35	4.17	3.99	3.82	3.59	3.35	3.05	2.59	2.04	1.58	1.23	1.22	1.35	1.94	2.96	3.97	5.20	6.86	7.97	7.67	6.41	5.51	5.03	5.12	5.42	5.57	5.59	5.67	5.66	5.39	5.17	5.14	5.12	4.75	4.24	4.17	4.82	5.67	6.06	5.97	5.75	5.92	6.88	7.68	7.35	6.17	5.23	4.70	4.46	4.59	5.15	5.80	6.39	6.57	6.53	6.53
6.36	6.22	6.07	6.09	6.02	5.82	5.55	5.37	5.42	5.58	5.54	5.37	5.62	5.40	5.45	5.59	5.70	5.71	5.61	5.35	4.99	4.63	4.40	4.37	4.52	4.73	4.89	5.04	5.11	5.05	5.23	5.82	6.42	5.83	4.42	4.06	4.78	5.91	6.39	5.88	4.92	4.73	4.99	5.39	6.13	7.31	7.62	6.62	5.28	4.56	4.28	3.99	3.58	3.30	3.33	3.51	3.91	4.57	5.27	6.20	7.61	8.90	9.05	8.22	7.21	6.28	5.55	5.17	5.07	5.09	5.06	4.93	4.79	4.60	4.34	4.05	3.63	3.03	2.45	1.99	1.55	1.47	1.68	2.44	3.54	4.61	5.90	7.38	7.84	7.31	6.62	6.08	5.79	5.74	5.78	5.75	5.98	6.44	6.46	6.09	5.84	5.84	5.66	5.14	4.84	5.13	5.51	5.63	5.62	5.61	5.52	5.99	7.18	7.58	6.87	5.86	5.03	4.40	4.13	4.37	4.93	5.59	6.39	6.91	6.91
6.33	5.95	5.42	5.51	5.75	5.69	5.39	5.10	5.00	5.10	5.11	5.07	4.97	4.96	4.83	4.95	5.21	5.50	5.61	5.45	5.12	4.74	4.43	4.28	4.32	4.48	4.61	4.78	4.94	4.87	5.00	5.63	6.42	6.20	4.76	3.72	3.97	5.04	6.07	6.19	5.48	4.90	4.84	5.11	5.75	7.08	7.74	6.88	5.35	4.66	4.48	4.38	4.18	4.00	4.05	4.06	4.15	4.56	5.19	6.08	7.47	8.92	9.25	8.56	7.68	6.98	6.50	6.27	6.23	6.30	6.31	6.24	6.12	5.98	5.78	5.51	5.13	4.57	3.86	3.09	2.30	1.73	1.63	1.86	2.87	4.03	5.06	6.36	7.32	7.27	6.59	6.19	6.02	5.99	6.14	6.21	6.36	6.74	7.04	7.10	6.92	6.68	6.39	5.95	5.70	5.75	5.77	5.45	5.29	5.34	5.15	5.20	6.22	7.19	6.97	5.91	5.11	4.51	4.01	3.85	4.21	4.87	5.92	6.66	6.66
6.49	6.08	5.23	5.03	5.40	5.69	5.56	5.22	4.96	4.91	5.01	5.13	5.13	4.94	4.78	4.78	4.99	5.34	5.61	5.58	5.28	4.84	4.45	4.25	4.23	4.35	4.48	4.66	4.82	4.63	4.58	5.21	6.30	6.65	5.68	4.07	3.64	4.28	5.38	5.92	5.58	4.96	4.65	4.65	5.17	6.59	7.71	7.29	5.90	5.15	5.03	5.01	4.94	4.79	4.68	4.48	4.38	4.56	5.06	5.89	7.19	8.77	9.41	9.09	8.25	7.71	7.43	7.31	7.38	7.49	7.56	7.54	7.47	7.40	7.29	7.11	6.80	6.37	5.69	4.69	3.55	2.42	1.79	1.63	2.06	3.19	4.22	5.39	6.52	6.76	6.20	5.90	5.76	5.78	5.99	6.12	6.12	6.13	6.37	6.75	7.03	7.11	6.91	6.35	6.00	6.15	6.34	5.86	5.36	5.12	4.71	4.34	5.02	6.51	6.85	6.00	5.26	4.79	4.27	3.91	4.01	4.59	5.48	6.06	6.06
6.56	6.32	5.57	4.97	5.04	5.52	5.80	5.62	5.25	5.10	5.32	5.59	5.69	5.51	5.26	5.12	5.17	5.39	5.65	5.73	5.52	5.08	4.59	4.28	4.21	4.35	4.56	4.82	4.83	4.30	3.80	4.38	5.67	6.71	6.57	5.19	4.17	4.23	5.03	5.68	5.63	5.27	5.02	4.90	5.17	6.19	7.42	7.43	6.48	5.88	5.74	5.61	5.47	5.21	4.93	4.60	4.47	4.53	4.76	5.29	6.33	7.97	9.08	9.06	8.40	7.75	7.40	7.23	7.20	7.28	7.42	7.54	7.55	7.54	7.54	7.56	7.50	7.28	6.90	6.34	5.42	4.11	2.71	1.91	1.76	2.37	3.44	4.66	5.72	6.07	5.84	5.61	5.31	5.08	4.97	4.90	4.86	4.93	5.08	5.30	5.84	6.55	6.84	6.38	5.82	5.83	6.34	6.41	6.02	5.53	4.86	4.12	4.25	5.59	6.44	6.03	5.45	5.13	4.85	4.56	4.39	4.49	5.01	5.43	5.43
6.48	6.34	5.79	5.21	4.92	5.15	5.66	5.86	5.55	5.26	5.52	5.92	6.12	6.02	5.77	5.50	5.35	5.44	5.68	5.85	5.76	5.40	4.89	4.44	4.22	4.33	4.68	5.14	5.01	3.97	3.14	3.43	4.52	6.01	6.64	6.14	5.13	4.90	5.36	5.89	6.03	5.98	5.90	5.75	5.78	6.28	7.11	7.34	7.18	6.95	6.67	6.26	5.82	5.27	4.88	4.52	4.35	4.24	4.30	4.56	5.25	6.58	8.21	8.69	8.21	7.15	6.32	5.82	5.43	5.36	5.54	5.89	6.05	6.15	6.27	6.52	6.85	6.85	6.62	6.53	6.31	5.67	4.54	3.15	2.31	2.17	2.79	4.04	5.08	5.45	5.47	5.35	4.99	4.57	4.28	4.09	4.01	4.30	4.68	4.87	5.29	6.12	6.77	6.53	5.48	4.74	5.18	5.85	6.10	6.03	5.62	4.72	4.20	4.89	5.86	5.78	5.40	5.34	5.54	5.70	5.52	5.02	4.71	4.69	4.69
6.47	6.16	5.56	5.10	4.76	4.75	5.22	5.73	5.61	5.16	5.26	5.64	6.01	6.12	5.95	5.65	5.37	5.33	5.57	5.82	5.81	5.58	5.21	4.73	4.32	4.27	4.75	5.45	5.33	3.98	2.82	2.71	3.38	4.64	6.03	6.23	5.69	5.52	5.83	6.29	6.53	6.56	6.46	6.40	6.44	6.57	6.81	7.10	7.33	7.47	7.41	6.88	6.14	5.36	4.85	4.46	4.22	4.02	4.09	4.29	4.76	5.76	7.29	8.33	8.13	6.71	5.39	4.41	3.80	3.48	3.48	3.85	4.22	4.41	4.64	4.94	5.52	5.70	5.37	5.27	5.58	5.65	5.27	4.36	3.48	2.49	2.54	3.36	4.44	4.93	5.15	5.25	5.08	4.77	4.64	4.63	4.56	4.77	5.20	5.59	6.11	6.73	7.26	7.22	5.83	4.28	3.86	4.29	4.88	5.37	5.57	5.11	4.36	4.57	5.40	5.53	5.19	5.04	5.32	5.98	6.43	6.26	5.39	4.82	4.82
6.68	6.16	5.30	4.72	4.36	4.24	4.65	5.35	5.50	5.04	5.47	5.14	5.40	5.70	5.69	5.53	5.26	5.11	5.27	5.62	5.76	5.62	5.40	5.09	4.64	4.39	4.81	5.67	5.71	4.46	3.03	2.46	2.64	3.56	5.01	5.72	5.62	5.49	5.66	6.08	6.46	6.55	6.50	6.46	6.48	6.39	6.39	6.48	6.74	7.23	7.55	7.28	6.42	5.57	5.01	4.64	4.39	4.23	4.34	4.52	4.89	5.66	7.01	8.30	8.38	7.00	5.39	4.32	3.69	3.21	2.83	2.72	2.95	3.24	3.47	3.78	4.45	4.86	4.54	4.05	4.06	4.29	4.26	4.05	3.75	3.03	2.85	3.07	3.87	4.53	4.99	5.34	5.46	5.41	5.48	5.66	5.69	5.70	5.91	6.20	6.53	7.09	7.94	8.29	7.10	5.04	3.77	3.39	3.45	3.72	4.26	4.58	4.37	4.34	4.97	5.38	5.30	4.96	4.56	4.77	5.90	6.53	6.14	5.59	5.59
6.97	6.38	5.36	4.68	4.18	3.77	3.91	4.67	5.05	4.76	4.40	4.69	4.59	5.02	5.10	5.12	5.02	4.85	4.91	5.31	5.68	5.72	5.58	5.40	5.04	4.74	4.98	5.76	5.98	5.11	3.74	2.81	2.49	2.89	4.05	4.97	5.12	5.04	5.08	5.39	5.82	6.10	6.14	6.11	6.06	5.94	5.83	5.72	5.60	6.18	7.05	7.29	6.67	5.85	5.28	4.94	4.70	4.55	4.64	4.76	5.04	5.67	6.94	8.43	8.82	7.70	6.08	4.93	4.22	3.66	3.15	2.67	2.51	2.59	2.72	2.94	3.58	4.14	4.02	3.48	3.22	3.19	3.09	2.97	3.01	3.16	3.19	3.29	3.72	4.32	4.85	5.34	5.70	5.88	5.97	6.10	6.12	6.04	5.98	6.00	6.19	6.82	7.98	8.91	8.61	6.85	4.84	3.68	3.21	3.01	3.12	3.66	4.15	4.36	4.69	5.17	5.63	5.83	5.29	4.62	4.80	5.69	6.13	6.11	6.11
7.18	6.59	5.66	5.06	4.53	3.88	3.51	3.83	4.28	4.22	3.98	4.57	4.10	4.55	4.68	5.13	4.78	4.71	4.66	4.96	5.48	5.83	5.87	5.70	5.46	5.22	5.28	5.81	6.06	5.49	4.32	3.38	2.73	2.59	3.34	4.22	4.64	4.78	4.80	4.96	5.28	5.61	5.72	5.74	5.67	5.52	5.32	4.99	4.87	5.35	6.35	6.95	6.63	5.96	5.37	5.06	4.79	4.57	4.58	4.65	4.89	5.43	6.64	8.30	8.99	8.19	6.68	5.51	4.68	4.11	3.61	3.18	2.81	2.59	2.48	2.54	3.00	3.50	3.49	3.30	2.36	3.03	2.92	2.78	1.59	2.84	3.21	3.51	3.81	4.21	4.57	4.96	5.37	5.64	5.81	5.95	5.91	5.79	5.62	5.58	5.84	6.44	7.44	8.60	9.03	8.11	6.26	5.02	4.44	3.98	3.62	3.67	4.12	4.61	4.86	5.03	5.50	6.21	6.46	5.86	5.07	5.17	5.86	6.23	6.23
7.15	6.73	6.09	5.71	5.28	4.68	3.98	3.77	3.89	3.96	3.91	4.88	5.07	4.66	4.82	4.82	4.87	4.85	4.73	4.83	5.29	5.84	6.07	6.07	5.95	5.80	5.78	6.02	6.13	5.64	4.60	3.89	3.35	2.99	3.22	3.91	4.60	4.99	5.07	5.15	5.33	5.51	5.57	5.63	5.50	5.20	4.76	4.43	4.18	4.48	5.49	6.31	6.31	5.73	5.18	4.88	4.59	4.31	4.27	4.33	4.59	5.06	6.18	7.82	8.75	8.30	7.04	5.91	5.09	4.55	4.12	3.81	3.54	3.17	2.79	2.48	2.55	2.65	3.27	3.30	3.33	3.28	3.24	3.18	2.33	3.06	3.28	3.56	3.79	4.05	4.28	4.50	4.82	5.15	5.43	5.53	5.51	5.44	5.33	5.35	5.65	6.20	6.94	7.94	8.70	8.33	7.21	6.42	6.06	5.65	5.13	4.66	4.56	4.89	5.20	5.22	5.18	5.57	6.44	6.73	6.34	6.01	6.25	6.47	6.47
6.93	6.70	6.35	6.24	6.07	5.66	5.06	4.57	4.29	4.22	5.36	4.41	4.78	5.20	5.46	5.54	5.52	5.49	5.30	5.18	5.41	5.86	6.22	6.44	6.49	6.44	6.41	6.48	6.37	5.87	5.17	4.70	4.36	4.02	3.88	4.19	4.83	5.33	5.60	5.74	5.86	5.83	5.82	5.81	5.50	4.89	4.39	3.87	3.53	3.69	4.61	5.58	5.83	5.35	4.92	4.66	4.38	4.14	4.09	4.23	4.53	5.00	6.02	7.53	8.51	8.26	7.18	6.19	5.46	5.01	4.71	4.47	4.21	3.92	3.53	3.31	3.33	3.39	3.44	3.57	3.71	3.76	3.74	3.29	3.49	3.44	3.46	3.54	3.68	3.90	4.10	4.28	4.59	4.91	5.10	5.10	5.07	5.11	5.10	5.19	5.52	6.07	6.82	7.71	8.23	7.93	7.14	6.60	6.50	6.36	5.89	5.24	4.90	5.06	5.45	5.71	5.65	5.63	6.07	6.70	6.89	6.79	6.93	7.14	7.14
6.64	6.45	6.16	6.21	6.40	6.36	5.97	5.43	4.89	4.54	4.48	4.72	5.20	5.66	6.07	6.26	6.31	6.32	6.25	6.05	6.00	6.10	6.33	6.62	6.84	6.85	6.92	6.98	6.69	6.08	5.54	5.16	4.95	4.70	4.40	4.35	4.67	5.16	5.63	6.01	6.24	6.32	6.37	6.20	5.49	4.59	3.96	3.48	3.06	2.95	3.67	4.68	5.10	4.95	4.71	4.56	4.43	4.37	4.41	4.58	4.85	5.32	6.22	7.62	8.53	8.41	7.39	6.57	5.99	5.50	5.20	5.03	4.81	4.53	4.19	3.95	3.84	3.82	3.88	4.04	4.19	4.18	4.08	3.86	3.68	3.56	3.51	3.48	3.56	3.76	3.96	4.16	4.39	4.56	4.67	4.64	4.65	4.83	5.02	5.17	5.53	6.13	6.98	7.79	8.11	7.60	6.42	5.57	5.61	5.93	5.83	5.30	4.94	5.08	5.49	5.99	6.30	6.22	6.15	6.24	6.37	6.50	7.26	7.95	7.95
6.43	6.14	5.73	5.69	6.01	6.33	6.37	5.97	5.32	4.73	5.97	4.54	5.00	5.59	5.94	6.26	6.44	6.52	6.58	6.56	6.43	6.30	6.31	6.49	6.76	6.93	7.12	7.24	6.99	6.28	5.43	4.84	4.57	4.45	4.29	4.28	4.43	4.78	5.22	5.75	6.25	6.64	7.02	6.86	5.72	4.26	3.51	3.19	2.74	2.46	2.74	3.53	4.21	4.46	4.56	4.64	4.72	4.83	4.94	4.91	5.08	5.50	6.26	7.66	8.73	9.03	8.13	7.23	6.64	6.15	5.68	5.42	5.27	5.16	4.97	4.72	4.61	4.60	4.67	4.74	4.74	4.58	4.30	3.96	3.73	3.55	3.49	3.46	3.50	3.63	3.77	3.91	4.04	4.16	4.26	4.42	4.61	4.89	5.29	5.63	5.89	6.38	7.13	7.97	8.37	7.82	6.11	4.74	4.44	4.75	5.03	4.99	4.78	4.84	5.16	5.67	6.03	6.03	5.89	5.75	5.76	6.09	7.43	8.42	8.42
6.32	6.04	5.54	5.21	5.21	5.52	5.95	5.99	5.52	4.87	4.33	4.10	4.26	4.63	4.99	5.32	5.62	5.73	5.74	5.84	5.94	5.90	5.85	5.96	6.23	6.55	6.84	7.13	7.07	6.58	5.84	4.98	4.33	4.00	4.03	4.27	4.56	4.79	5.01	5.40	5.98	6.65	7.51	7.62	6.33	4.38	3.42	3.09	2.73	2.43	2.39	2.81	3.49	4.02	4.43	4.78	5.06	5.30	5.38	5.22	5.18	5.48	6.08	7.33	8.77	9.62	9.39	8.27	7.31	6.79	6.34	6.01	5.94	6.07	6.09	5.98	5.90	5.84	5.75	5.54	5.29	4.99	4.54	4.08	3.55	3.56	3.45	3.38	3.39	3.47	3.54	3.59	3.68	3.92	4.22	4.57	4.90	5.23	5.67	5.99	6.18	6.48	7.10	8.02	8.87	8.57	6.65	4.97	4.20	3.99	4.13	4.28	4.33	4.45	4.66	4.93	5.18	5.27	5.26	5.38	5.58	5.94	7.30	8.30	8.30
6.24	5.96	5.41	4.96	4.61	4.59	5.06	5.50	5.36	4.78	4.10	3.56	3.34	3.41	3.62	3.91	4.34	4.62	4.55	4.43	4.61	4.86	5.00	5.12	5.28	5.71	6.36	6.78	6.70	6.41	6.26	5.95	5.28	4.58	4.22	4.31	4.51	4.73	4.84	5.07	5.60	6.55	7.79	8.17	7.07	5.10	4.00	3.60	3.26	3.01	2.92	3.08	3.47	3.91	4.29	4.66	5.06	5.50	5.73	5.73	5.66	5.74	5.97	6.77	8.22	9.52	9.85	9.29	8.29	7.66	7.42	7.21	7.14	7.22	7.23	7.11	6.93	6.77	6.59	6.24	5.86	5.47	4.96	4.34	3.91	3.64	3.43	3.22	3.15	3.21	3.27	3.27	3.34	3.70	4.20	4.73	5.17	5.44	5.72	5.93	6.06	6.26	6.78	7.83	9.08	9.13	7.62	5.90	4.99	4.42	4.08	3.93	3.91	4.00	4.04	4.04	4.20	4.50	4.72	5.10	5.46	5.76	6.81	7.68	7.68
6.26	5.83	5.10	4.68	4.43	4.31	4.50	4.92	5.06	4.69	4.05	3.38	2.91	2.68	2.60	2.77	3.35	4.02	4.27	4.06	3.87	3.99	4.21	4.31	4.47	5.04	6.04	6.45	6.05	5.37	5.54	5.94	5.90	5.43	4.67	4.25	4.11	4.30	4.48	4.71	5.22	6.35	7.72	8.33	7.67	6.36	5.43	4.89	4.41	4.06	3.92	3.92	3.99	4.10	4.18	4.35	4.69	5.19	5.63	5.86	5.93	5.87	5.89	6.20	7.04	8.36	9.43	9.46	8.96	8.43	8.24	8.02	7.82	7.73	7.64	7.42	7.13	6.92	6.78	6.59	6.28	5.90	5.41	4.38	4.10	3.72	3.44	3.15	2.96	2.95	2.99	2.97	3.06	3.40	3.89	4.45	4.89	5.15	5.36	5.55	5.73	5.91	6.36	7.48	8.91	9.26	8.03	6.20	5.19	4.53	4.07	3.76	3.59	3.52	3.32	3.24	3.51	4.02	4.50	4.99	5.41	5.81	6.47	6.88	6.88
6.51	5.94	4.99	4.49	4.38	4.39	4.49	4.73	4.94	4.88	4.48	3.92	3.36	2.90	2.54	2.36	3.07	3.59	4.39	4.49	4.20	3.96	3.74	3.60	3.85	4.71	5.89	6.24	5.55	4.35	4.16	4.71	5.28	5.34	4.77	4.09	3.68	3.72	4.08	4.43	4.92	5.95	7.35	8.14	7.89	7.15	6.62	6.13	5.52	4.98	4.54	4.29	4.22	4.24	4.22	4.24	4.46	4.88	5.24	5.41	5.51	5.58	5.69	5.78	6.18	7.12	8.36	8.95	8.76	8.34	8.03	7.63	7.26	7.14	7.14	6.99	6.60	6.21	6.24	6.42	6.30	5.98	5.58	4.93	3.84	3.42	3.39	3.08	2.82	2.72	2.72	2.73	2.87	3.10	3.42	3.84	4.24	4.54	4.75	5.04	5.38	5.64	5.97	7.10	8.81	9.43	8.00	5.80	4.51	3.86	3.45	3.37	3.34	3.23	3.04	3.12	3.52	4.09	4.66	5.23	5.76	6.19	6.42	6.43	6.43
6.71	6.22	5.33	4.77	4.58	4.62	4.77	4.95	5.10	5.21	5.15	4.86	4.45	3.84	3.20	2.63	2.56	3.14	4.41	5.18	5.22	4.69	3.91	3.27	3.37	4.48	5.77	6.13	5.35	4.01	3.35	3.43	4.02	4.40	4.32	4.01	3.77	3.76	3.99	4.41	4.93	5.85	6.98	7.77	7.69	7.14	6.75	6.52	6.11	5.48	4.76	4.28	4.16	4.23	4.26	4.26	4.39	4.67	4.87	4.96	4.99	5.11	5.31	5.45	5.76	6.54	7.62	8.25	8.06	7.55	7.20	6.77	6.20	5.98	6.26	6.46	6.07	5.36	5.22	5.74	5.91	5.61	5.25	4.81	4.15	3.19	3.23	2.93	2.66	2.48	2.43	2.50	2.67	2.76	2.87	3.12	3.50	3.84	4.10	4.46	4.94	5.31	5.61	6.62	8.57	9.68	8.79	6.42	4.77	3.96	3.59	3.49	3.48	3.45	3.52	3.83	4.21	4.68	5.24	5.87	6.50	6.83	6.76	6.61	6.61
6.69	6.34	5.68	5.23	5.00	4.96	5.12	5.38	5.55	5.76	5.93	5.93	5.76	5.26	4.51	3.66	2.87	2.82	3.87	5.30	6.00	5.85	4.92	3.75	3.42	4.34	5.57	6.01	5.48	4.34	3.47	3.01	3.04	3.39	3.75	4.06	4.32	4.55	4.69	4.85	5.24	5.99	6.89	7.52	7.34	6.63	6.24	6.20	6.12	5.82	5.17	4.53	4.24	4.21	4.23	4.21	4.25	4.35	4.55	4.71	4.81	4.93	5.12	5.23	5.52	6.34	7.32	7.72	7.31	6.80	6.53	6.31	5.85	5.33	5.37	5.95	5.89	5.04	4.39	4.78	5.26	4.98	4.57	4.21	3.76	3.31	2.99	2.78	2.61	2.46	2.38	2.40	2.49	2.48	2.39	2.44	2.78	3.16	3.56	4.06	4.62	5.11	5.54	6.31	7.94	9.57	9.62	7.94	6.04	4.95	4.37	4.04	3.86	3.87	4.16	4.66	5.07	5.36	5.68	6.15	6.73	7.20	7.28	7.21	7.21
6.58	6.30	5.78	5.38	5.22	5.22	5.43	5.74	6.07	6.42	6.72	6.92	6.85	6.47	5.77	4.88	3.79	2.96	3.20	4.65	6.00	6.57	6.23	5.16	4.23	4.46	5.30	5.82	5.77	5.12	4.38	3.71	3.29	3.28	3.62	4.14	4.62	5.05	5.24	5.29	5.52	6.15	6.99	7.50	7.14	6.20	5.68	5.58	5.61	5.65	5.43	4.87	4.38	4.23	4.20	4.21	4.23	4.22	4.39	4.64	4.75	4.86	5.04	5.10	5.41	6.36	7.29	7.39	6.70	6.31	6.09	5.97	5.94	5.42	4.89	5.26	5.67	5.16	4.18	4.05	4.51	4.47	4.04	3.70	3.42	3.07	2.74	2.59	2.58	2.61	2.65	2.65	2.61	2.50	2.28	2.15	2.40	2.94	3.44	3.92	4.54	5.19	5.71	6.23	7.24	8.71	9.39	8.60	7.01	5.68	4.82	4.29	4.05	4.06	4.28	4.69	5.17	5.50	5.74	5.99	6.29	6.80	7.42	7.70	7.70
6.42	6.23	5.83	5.41	5.21	5.22	5.42	5.70	6.22	6.50	6.97	7.33	7.56	7.48	7.02	6.24	5.09	3.77	3.16	3.89	5.31	6.55	6.84	6.32	5.39	4.91	5.15	5.56	5.76	5.64	5.34	4.87	4.32	3.93	3.88	4.07	4.28	4.61	4.95	5.18	5.51	6.22	7.13	7.61	7.14	5.92	5.20	4.92	4.75	4.82	5.02	4.81	4.33	4.12	4.12	4.17	4.16	4.12	4.21	4.46	4.59	4.72	4.89	5.10	5.53	6.56	7.41	7.26	6.25	5.86	5.73	5.48	5.74	5.78	5.17	4.96	5.33	5.29	4.27	3.96	4.12	3.30	3.92	3.68	3.42	3.07	2.66	2.41	2.43	2.61	2.82	2.99	3.04	2.90	2.61	2.39	2.54	3.13	3.72	4.12	4.54	5.13	5.77	6.23	6.76	7.70	8.56	8.35	7.22	6.00	5.18	4.66	4.32	4.14	4.07	4.14	4.44	4.77	5.10	5.42	5.67	6.05	7.18	7.91	7.91
6.22	6.11	5.82	5.43	5.15	5.05	5.08	5.12	5.24	5.57	6.10	6.75	7.43	7.83	7.88	7.55	6.67	5.17	3.80	3.59	4.46	5.87	6.73	6.82	6.24	5.54	5.24	5.26	5.28	5.39	5.51	5.44	5.12	4.54	4.06	3.84	3.79	3.99	4.40	4.88	5.45	6.31	7.31	7.86	7.32	5.92	4.95	4.45	4.14	4.01	4.18	4.23	3.95	3.74	3.80	3.76	3.75	3.88	4.00	4.18	4.34	4.43	4.65	5.01	5.63	6.76	7.71	7.42	6.04	5.35	5.30	4.94	4.94	5.48	5.46	5.09	5.12	5.19	4.83	4.38	4.24	4.08	3.96	3.95	3.78	3.40	2.92	2.47	2.39	2.57	2.86	3.16	3.39	3.42	3.20	2.88	2.77	3.04	3.58	4.00	4.40	4.95	5.65	6.18	6.58	7.25	7.95	7.83	6.89	6.02	5.51	5.16	4.76	4.31	3.97	3.81	3.96	4.22	4.54	5.04	5.51	5.98	7.10	7.86	7.86
6.03	5.93	5.66	5.41	5.15	4.98	4.87	4.65	4.37	4.27	4.49	5.21	6.26	7.19	7.82	8.07	7.80	6.78	5.08	3.98	4.17	5.23	6.17	6.76	6.66	6.02	5.47	5.16	4.80	4.65	4.77	4.99	5.04	4.65	4.12	3.76	3.65	3.86	4.35	4.86	5.46	6.37	7.44	8.15	7.73	6.33	5.14	4.46	4.00	3.65	3.53	3.60	3.54	3.49	3.43	3.19	3.23	3.56	3.76	3.93	4.02	3.95	4.17	4.69	5.47	6.85	8.03	7.85	6.32	5.15	4.92	4.61	4.43	4.85	5.23	5.19	5.15	5.04	5.25	5.05	4.79	4.37	4.16	4.29	4.29	3.94	3.43	2.98	2.80	2.97	3.23	3.44	3.64	3.77	3.71	3.34	2.91	2.74	3.02	3.47	3.97	4.58	5.36	6.01	6.55	7.29	7.77	7.35	6.32	5.65	5.29	5.06	4.75	4.35	4.10	4.08	4.33	4.63	4.96	5.30	5.75	6.34	7.30	7.83	7.83
5.91	5.77	5.49	5.35	5.21	5.08	4.98	4.83	4.50	4.02	3.64	3.69	4.44	5.65	6.76	7.55	7.99	7.80	6.62	4.98	4.57	5.10	5.75	6.51	6.79	6.46	5.91	5.36	4.76	4.21	3.88	3.90	4.15	4.22	4.05	3.84	3.78	3.92	4.34	4.85	5.43	6.31	7.41	8.30	8.12	6.80	5.43	4.55	4.09	3.79	3.64	3.64	3.60	3.45	3.43	3.05	3.19	3.55	3.73	3.88	3.88	3.67	3.73	4.28	5.21	6.63	8.09	8.29	7.09	5.77	5.20	4.86	4.58	4.69	5.00	5.18	5.30	5.49	5.58	5.52	5.31	4.92	4.64	4.74	4.90	4.79	4.49	4.23	4.03	3.97	3.90	3.85	3.88	3.96	3.97	3.71	3.22	2.94	3.09	3.50	3.96	4.41	4.97	5.65	6.41	7.36	7.75	7.03	5.72	4.93	4.54	4.39	4.31	4.22	4.22	4.34	4.57	4.81	5.09	5.41	5.79	6.42	7.34	7.85	7.85
5.83	5.67	5.42	5.33	5.28	5.23	5.21	5.29	5.30	4.93	4.20	3.55	3.44	4.08	5.24	6.36	7.29	7.92	7.55	6.23	5.35	5.49	5.94	6.49	6.84	6.86	6.59	6.00	5.25	4.55	3.90	3.58	3.53	3.66	3.74	3.73	3.75	3.80	4.08	4.65	5.27	6.10	7.19	8.26	8.34	7.06	5.56	4.83	4.56	4.46	4.44	4.32	4.10	3.83	3.84	3.56	3.88	4.22	4.37	4.40	4.32	4.10	4.07	4.43	5.25	6.45	7.90	8.54	8.06	7.02	6.18	5.66	5.25	5.09	5.19	5.30	5.43	5.64	5.78	5.79	5.70	5.55	5.47	5.60	5.83	6.02	6.14	6.08	5.72	5.12	4.54	4.23	4.12	4.07	4.03	3.89	3.56	3.30	3.42	3.86	4.40	4.75	5.00	5.35	6.14	7.31	7.77	6.87	5.31	4.27	3.85	3.86	4.05	4.18	4.19	4.14	4.17	4.23	4.43	4.93	5.61	6.34	7.26	7.70	7.70
5.73	5.54	5.33	5.30	5.34	5.35	5.38	5.60	5.98	6.12	5.71	4.84	4.04	3.81	4.32	5.33	6.34	7.37	7.76	7.12	6.19	6.02	6.35	6.68	6.88	7.09	7.20	6.92	6.20	5.56	4.94	4.40	3.96	3.75	3.68	3.65	3.67	3.69	3.92	4.37	5.00	5.81	6.97	8.21	8.49	7.45	6.20	5.68	5.46	5.30	5.20	4.97	4.56	4.17	4.06	4.24	4.62	5.06	5.37	5.45	5.38	5.31	5.30	5.49	5.89	6.60	7.76	8.74	8.74	7.91	6.99	6.32	5.78	5.46	5.43	5.51	5.59	5.79	5.96	6.05	6.20	6.43	6.64	6.81	6.76	6.71	6.84	6.98	6.82	6.06	5.22	4.70	4.44	4.30	4.20	4.12	3.94	3.62	3.41	3.63	4.21	4.82	5.23	5.45	6.07	7.24	7.70	6.81	5.41	4.55	4.11	4.05	4.24	4.34	4.25	4.12	4.12	4.18	4.30	4.74	5.52	6.34	7.21	7.59	7.59
5.59	5.39	5.21	5.24	5.38	5.43	5.47	5.69	6.15	6.64	6.77	6.44	5.73	4.95	4.68	4.99	5.64	6.64	7.49	7.50	6.94	6.53	6.65	6.89	6.92	7.03	7.36	7.49	7.13	6.50	5.85	5.28	4.79	4.43	4.10	3.86	3.76	3.67	3.83	4.25	4.84	5.67	6.87	8.19	8.50	7.65	6.63	6.10	5.76	5.38	5.19	5.09	4.81	4.35	4.19	4.30	4.57	5.05	5.60	5.96	6.08	6.13	6.08	6.10	6.24	6.49	7.26	8.58	9.01	8.33	7.29	6.54	6.04	5.65	5.52	5.58	5.76	6.03	6.17	6.27	6.53	6.93	7.22	7.41	7.31	6.73	6.17	6.27	6.57	6.38	5.79	5.19	4.81	4.65	4.59	4.55	4.50	4.22	3.65	3.31	3.59	4.34	5.15	5.65	6.29	7.20	7.43	6.75	6.05	5.65	5.19	4.78	4.61	4.57	4.55	4.60	4.79	4.98	5.12	5.35	5.76	6.41	7.18	7.54	7.54
5.48	5.31	5.15	5.20	5.36	5.44	5.42	5.54	5.96	6.53	7.00	7.18	7.02	6.52	5.90	5.49	5.50	6.05	6.86	7.34	7.28	6.96	6.94	7.12	7.00	6.77	6.97	7.43	7.50	7.06	6.34	5.61	5.01	4.64	4.28	3.92	3.73	3.63	3.80	4.27	4.86	5.59	6.72	8.05	8.44	7.54	6.23	5.55	5.04	4.56	4.31	4.41	4.49	4.24	3.98	3.96	4.14	4.49	5.03	5.52	5.82	5.98	5.95	5.96	6.06	6.08	6.48	8.05	9.09	8.71	7.53	6.73	6.28	5.86	5.60	5.57	5.79	6.10	6.21	6.16	6.20	6.33	6.49	6.81	7.18	6.78	5.53	4.93	5.25	5.68	5.67	5.35	5.05	4.92	4.89	4.88	4.95	5.02	4.64	3.91	3.69	4.08	4.88	5.68	6.45	7.14	7.09	6.36	5.99	5.98	5.73	5.15	4.77	4.71	4.84	5.11	5.40	5.60	5.77	5.94	6.16	6.65	7.26	7.54	7.54
5.36	5.26	5.19	5.25	5.39	5.51	5.54	5.57	5.84	6.15	6.49	6.83	7.03	6.94	6.55	6.10	5.80	5.84	6.22	6.74	7.04	7.08	7.20	7.43	7.28	6.64	6.24	6.72	7.30	7.30	6.71	5.85	4.93	4.35	4.03	3.75	3.61	3.59	3.75	4.09	4.52	5.15	6.28	7.78	8.44	7.65	5.97	4.85	4.43	4.07	3.70	3.63	3.79	3.78	3.70	3.75	3.92	4.12	4.46	4.87	5.18	5.43	5.62	5.74	5.85	5.79	6.03	7.41	8.85	8.98	7.96	6.99	6.49	6.08	5.76	5.68	5.90	6.25	6.36	6.03	5.45	4.75	4.43	4.84	5.97	6.56	6.02	4.86	4.41	4.65	5.05	5.15	5.11	5.12	5.13	5.10	5.22	5.58	5.79	5.41	4.97	4.85	5.22	5.93	6.69	7.12	6.72	5.63	5.00	5.00	5.13	4.98	4.73	4.65	4.76	5.01	5.32	5.57	5.78	6.06	6.41	6.94	7.45	7.64	7.64
5.21	5.26	5.33	5.38	5.51	5.71	5.88	5.83	5.64	5.49	5.58	5.87	6.19	6.38	6.30	6.10	5.83	5.66	5.76	6.15	6.58	6.91	7.27	7.64	7.67	7.00	5.96	5.89	6.73	7.28	7.10	6.42	5.46	4.67	4.25	3.95	3.76	3.64	3.65	3.88	4.22	4.77	5.94	7.55	8.49	7.99	6.49	5.20	4.55	4.24	3.92	3.61	3.41	3.36	3.47	3.65	3.87	4.04	4.27	4.59	4.84	5.04	5.35	5.72	5.93	5.97	6.22	7.06	8.29	8.82	8.28	7.46	7.01	6.73	6.50	6.43	6.52	6.77	6.86	6.52	5.54	4.10	3.37	3.31	4.08	5.36	5.94	5.62	4.91	4.66	4.84	5.05	5.20	5.36	5.39	5.33	5.41	5.81	6.42	6.70	6.55	6.28	6.26	6.68	7.32	7.31	6.44	5.26	4.34	3.91	4.10	4.36	4.44	4.43	4.44	4.50	4.75	5.15	5.55	5.94	6.41	7.06	7.64	7.85	7.85
4.94	5.15	5.41	5.40	5.44	5.61	5.68	5.54	5.19	4.88	4.88	5.18	5.53	5.76	5.80	5.74	5.61	5.47	5.47	5.72	6.13	6.60	7.12	7.65	7.92	7.47	6.20	5.45	5.99	6.93	7.29	7.05	6.36	5.66	5.07	4.57	4.15	3.86	3.79	4.01	4.33	4.79	5.78	7.35	8.47	8.16	6.76	5.43	4.58	4.12	3.80	3.53	3.23	3.10	3.25	3.55	3.86	4.11	4.32	4.58	4.87	5.03	5.31	5.82	6.25	6.46	6.62	7.09	7.89	8.55	8.50	8.05	7.66	7.55	7.51	7.34	7.13	7.13	7.32	7.37	6.81	5.53	4.33	3.46	3.25	3.71	4.65	5.31	5.38	5.18	5.09	5.18	5.36	5.54	5.57	5.50	5.48	5.71	6.29	6.81	7.11	7.17	7.20	7.62	8.14	7.96	6.61	5.54	4.89	4.22	3.88	4.05	4.31	4.44	4.44	4.39	4.56	4.89	5.33	5.78	6.31	7.07	7.78	8.07	8.07
4.53	4.81	5.19	5.14	5.00	4.95	5.02	5.04	5.23	4.90	4.92	5.11	5.38	5.58	5.59	5.58	5.54	5.47	5.43	5.57	5.88	6.30	6.85	7.46	7.93	7.75	6.53	5.24	5.24	6.12	6.86	7.12	6.86	6.28	5.65	5.06	4.53	4.13	4.01	4.15	4.38	4.69	5.53	7.13	8.46	8.27	6.61	5.01	4.16	3.67	3.33	3.17	3.09	3.06	3.20	3.45	3.78	4.04	4.21	4.51	4.92	5.14	5.30	5.82	6.41	6.69	6.96	7.33	7.88	8.35	8.55	8.24	7.84	7.76	7.75	7.58	7.17	6.86	7.08	7.55	7.80	7.41	6.42	5.16	4.07	3.45	3.58	4.17	4.77	5.08	5.18	5.27	5.44	5.61	5.71	5.71	5.62	5.57	5.77	6.19	6.66	6.97	7.19	7.79	8.68	8.83	7.82	6.69	5.99	5.37	4.84	4.70	4.80	4.90	4.84	4.80	4.91	5.09	5.29	5.58	6.15	7.02	7.86	8.22	8.22
4.20	4.39	4.78	4.85	4.62	4.47	4.68	5.03	5.25	5.32	5.33	5.41	5.59	5.68	5.67	5.63	5.59	5.53	5.49	5.56	5.79	6.13	6.59	7.25	7.94	8.00	6.79	5.03	4.46	5.02	5.65	6.28	6.53	6.28	5.74	5.18	4.72	4.32	4.11	4.16	4.36	4.62	5.30	6.94	8.52	8.52	6.79	4.98	4.10	3.70	3.45	3.41	3.45	3.40	3.38	3.41	3.51	3.69	3.81	4.12	4.66	4.93	5.08	5.56	6.16	6.59	6.99	7.36	7.67	8.02	8.20	7.96	7.44	7.07	7.10	7.18	6.88	6.45	6.33	6.76	7.50	8.01	7.88	7.02	5.74	4.58	3.82	3.69	4.06	4.63	5.04	5.23	5.42	5.63	5.80	5.95	6.00	5.86	5.74	5.76	5.96	6.23	6.42	7.11	8.41	9.02	8.84	8.10	7.27	6.48	5.82	5.44	5.30	5.24	5.11	5.01	4.98	5.01	5.09	5.31	5.89	6.95	7.91	8.28	8.28
4.05	4.15	4.49	4.77	4.75	4.65	4.82	5.17	5.47	5.56	5.58	5.65	5.76	5.76	5.75	5.72	5.59	5.45	5.38	5.45	5.68	6.00	6.40	7.06	7.97	8.32	7.25	5.06	3.71	3.87	4.18	4.68	5.39	5.75	5.56	5.10	4.84	4.61	4.50	4.60	4.85	5.10	5.68	7.10	8.61	8.86	7.52	5.65	4.49	4.05	3.90	3.84	3.79	3.65	3.42	3.34	3.39	3.66	3.95	4.24	4.61	4.82	4.97	5.39	5.85	6.20	6.53	6.87	7.16	7.41	7.63	7.54	6.82	5.97	5.96	6.47	6.70	6.47	6.02	5.62	5.99	7.16	8.01	8.00	7.09	5.76	4.69	4.11	4.08	4.43	4.84	5.06	5.27	5.56	5.80	5.98	6.11	6.06	5.82	5.54	5.49	5.68	5.89	6.36	7.45	8.31	8.62	8.55	8.18	7.49	6.49	5.67	5.31	5.17	4.97	4.69	4.50	4.48	4.61	4.93	5.57	6.73	7.77	8.13	8.13
4.08	4.08	4.28	4.68	4.90	4.94	5.00	5.17	5.39	5.53	5.60	5.63	5.66	5.65	5.68	5.73	5.59	5.22	5.01	5.08	5.33	5.69	6.19	6.87	7.89	8.62	7.99	5.53	3.56	3.21	3.17	3.16	3.69	4.60	5.01	4.90	4.75	4.89	5.04	5.29	5.63	5.94	6.45	7.47	8.73	9.20	8.38	6.68	5.25	4.47	4.08	3.80	3.63	3.46	3.35	3.41	3.83	4.24	4.81	5.12	5.27	5.31	5.35	5.50	5.62	5.72	5.81	6.03	6.43	6.89	7.36	7.42	6.66	5.44	5.24	5.89	6.48	6.63	6.31	5.44	4.88	5.51	7.07	8.01	7.90	6.86	5.50	4.67	4.41	4.48	4.68	4.84	5.01	5.29	5.52	5.56	5.56	5.55	5.43	5.19	5.12	5.42	5.78	6.19	6.69	6.97	7.24	7.68	8.01	7.92	7.20	6.14	5.45	5.16	4.90	4.62	4.46	4.44	4.50	4.74	5.40	6.51	7.43	7.76	7.76
4.27	4.17	4.18	4.36	4.61	4.82	4.96	5.09	5.24	5.36	5.42	5.44	5.47	5.46	5.46	5.58	5.61	5.27	4.82	4.76	5.01	5.33	5.75	6.52	7.64	8.76	8.73	6.88	4.30	3.40	3.09	2.70	2.57	3.10	4.01	4.37	4.44	4.75	5.06	5.44	5.88	6.29	6.72	7.46	8.60	9.35	9.02	7.64	6.01	4.82	4.19	3.81	3.63	3.58	3.55	3.62	4.02	4.39	4.99	5.47	5.70	5.76	5.75	5.61	5.44	5.35	5.34	5.58	6.04	6.66	7.37	7.57	6.75	5.36	4.81	5.32	6.07	6.47	6.50	6.03	5.00	4.55	5.58	7.21	7.96	7.62	6.36	5.18	4.67	4.58	4.63	4.70	4.74	4.80	4.81	4.74	4.66	4.77	4.86	4.78	4.81	5.26	5.86	6.42	6.47	5.92	5.62	5.95	6.67	7.23	7.27	6.67	5.88	5.42	5.16	5.07	5.14	5.20	5.23	5.35	5.80	6.56	7.08	7.23	7.23
4.40	4.34	4.29	4.26	4.34	4.56	4.78	4.96	5.06	5.11	5.14	5.21	5.32	5.37	5.34	5.44	5.62	5.50	5.02	4.72	4.84	5.06	5.35	6.05	7.21	8.49	9.03	8.07	5.88	4.53	3.98	3.45	2.79	2.64	3.17	3.83	4.07	4.40	4.74	5.12	5.56	5.98	6.40	6.99	8.08	9.17	9.27	8.24	6.60	5.30	4.68	4.36	4.12	3.94	3.78	3.77	4.09	4.15	4.52	5.13	5.57	5.77	5.83	5.66	5.36	5.08	5.06	5.39	5.92	6.63	7.53	7.85	6.94	5.24	4.15	4.43	5.27	5.82	6.11	6.17	5.57	4.46	4.32	5.87	7.27	7.66	7.07	5.96	5.12	4.83	4.72	4.59	4.37	4.11	3.94	3.83	3.86	4.13	4.38	4.38	4.45	5.05	5.92	6.66	6.55	5.66	4.97	4.77	5.00	5.59	6.25	6.40	6.00	5.48	5.17	5.16	5.42	5.77	6.09	6.26	6.53	6.87	6.92	6.78	6.78
4.36	4.33	4.37	4.40	4.42	4.52	4.67	4.82	4.90	4.89	4.91	5.03	5.20	5.28	5.27	5.33	5.52	5.60	5.28	4.88	4.82	4.94	5.15	5.75	6.77	7.95	8.78	8.51	7.39	6.40	5.73	4.97	4.08	3.37	3.20	3.58	4.07	4.44	4.70	4.90	5.18	5.53	5.95	6.56	7.57	8.80	9.25	8.58	7.32	6.22	5.44	4.92	4.50	4.15	3.86	3.84	3.93	4.05	4.41	4.86	5.29	5.57	5.75	5.76	5.48	4.92	4.63	5.01	5.62	6.53	7.68	8.27	7.36	5.16	3.53	3.35	4.04	4.72	5.16	5.55	5.62	4.85	3.86	4.41	6.05	6.98	7.10	6.63	5.85	5.25	4.85	4.50	4.03	3.57	3.42	3.53	3.69	3.95	4.17	4.19	4.26	4.88	5.90	6.73	6.67	5.93	5.33	4.98	4.74	4.74	5.07	5.53	5.59	5.22	4.86	4.73	4.97	5.50	6.13	6.62	7.03	7.25	6.99	6.66	6.66
4.29	4.25	4.33	4.48	4.58	4.64	4.66	4.69	4.72	4.72	4.78	4.93	5.09	5.17	5.20	5.27	5.42	5.55	5.35	4.98	4.85	4.94	5.19	5.75	6.58	7.46	8.23	8.34	7.84	7.34	7.02	6.47	5.51	4.47	3.86	3.91	4.31	4.63	4.70	4.75	4.92	5.23	5.68	6.29	7.20	8.37	8.98	8.61	7.75	6.98	6.24	5.50	4.91	4.42	4.00	3.90	4.00	4.09	4.26	4.49	4.79	5.16	5.53	5.85	5.71	4.88	4.16	4.39	5.06	6.13	7.64	8.68	8.21	5.97	3.89	3.25	3.35	3.63	3.92	4.31	4.83	4.70	3.84	3.56	4.67	5.75	6.28	6.35	6.01	5.43	4.90	4.50	4.08	3.72	3.68	3.92	4.21	4.44	4.56	4.58	4.66	5.13	5.96	6.76	6.93	6.36	5.73	5.34	5.16	4.99	4.86	5.06	5.25	5.15	4.94	4.81	4.88	5.23	5.83	6.59	7.24	7.46	7.12	6.77	6.77
4.31	4.28	4.37	4.49	4.57	4.62	4.60	4.55	4.53	4.57	4.72	4.89	5.02	5.09	5.13	5.26	5.46	5.58	5.53	5.09	4.84	4.87	5.19	5.72	6.38	7.07	7.73	7.94	7.58	7.15	7.08	7.08	6.59	5.51	4.51	4.13	4.18	4.26	4.39	4.57	4.74	4.97	5.30	5.84	6.68	7.82	8.48	8.24	7.52	7.01	6.60	6.06	5.53	4.94	4.31	3.96	4.33	3.77	4.01	4.00	4.28	4.70	5.25	5.79	5.89	5.01	3.89	3.83	4.53	5.61	7.19	8.69	8.89	7.65	5.66	4.43	3.87	3.62	3.45	3.28	3.66	3.97	3.64	3.12	3.44	4.28	4.91	5.21	5.26	5.08	4.82	4.60	4.40	4.27	4.30	4.49	4.80	5.14	5.39	5.48	5.49	5.65	6.07	6.74	7.26	7.18	6.50	5.61	5.12	4.94	4.88	5.06	5.32	5.48	5.48	5.41	5.34	5.34	5.67	6.50	7.36	7.56	7.07	6.67	6.67
4.34	4.31	4.32	4.28	4.28	4.33	4.40	4.48	4.49	4.52	4.66	4.88	5.04	5.09	5.05	5.21	5.55	5.77	5.74	5.42	5.04	4.85	5.00	5.46	6.04	6.66	7.31	7.62	7.26	6.49	6.25	6.65	6.91	6.43	5.35	4.38	4.52	3.70	4.00	4.45	4.63	4.75	4.93	5.35	6.27	7.46	8.06	7.64	6.70	6.17	5.91	5.68	5.47	5.15	4.59	4.04	3.75	3.56	3.59	3.81	4.11	4.56	5.15	5.77	6.06	5.28	3.95	3.62	4.19	5.22	6.56	8.07	8.82	8.62	7.80	6.73	5.86	5.14	4.52	3.94	3.64	3.71	3.60	3.18	2.98	3.21	3.66	4.10	4.41	4.59	4.70	4.70	4.64	4.59	4.61	4.71	4.94	5.35	5.79	6.00	5.97	5.89	5.96	6.37	7.09	7.53	7.42	6.64	5.51	4.89	4.81	5.01	5.29	5.46	5.45	5.36	5.28	5.24	5.53	6.37	7.45	7.75	6.94	6.29	6.29
4.33	4.29	4.18	4.03	4.01	4.14	4.32	4.53	4.64	4.63	4.66	4.83	5.05	5.12	5.08	6.07	5.60	6.00	6.06	5.89	5.55	5.17	5.02	5.27	5.73	6.28	6.91	7.32	7.11	6.27	5.57	5.68	6.35	6.64	6.08	4.95	4.06	3.74	3.90	4.40	4.67	4.80	4.96	5.36	6.31	7.53	7.98	7.16	5.72	4.85	4.58	4.35	4.31	4.35	4.11	3.81	3.65	3.61	3.69	3.92	4.22	4.60	5.15	5.78	6.15	5.55	4.17	3.60	3.99	4.96	6.12	7.36	8.21	8.44	8.38	8.20	7.84	7.33	6.71	5.96	5.23	4.79	4.63	4.24	3.64	3.28	3.31	3.63	4.03	4.35	4.58	4.72	4.78	4.78	4.78	4.87	5.07	5.33	5.60	5.83	5.95	5.85	5.58	5.60	6.20	6.93	7.39	7.40	6.72	5.66	5.09	4.91	4.77	4.57	4.38	4.29	4.38	4.66	5.18	6.13	7.39	7.91	7.06	6.19	6.19
4.28	4.26	4.17	4.05	4.07	4.25	4.43	4.59	4.72	4.76	4.69	4.70	4.90	5.03	4.99	5.02	5.28	5.66	5.92	6.00	5.91	5.64	5.33	5.30	5.62	6.04	6.50	6.83	6.77	6.27	5.52	5.03	5.29	6.04	6.14	5.43	4.53	4.15	4.11	4.48	4.84	5.09	5.29	5.70	6.66	7.86	8.19	7.08	5.24	4.22	3.76	3.41	3.25	3.30	3.39	3.48	3.57	3.67	3.77	3.96	4.21	4.54	5.10	5.76	6.16	5.67	4.28	3.55	3.76	4.69	5.85	6.98	7.49	7.37	7.35	7.74	8.08	8.12	7.96	7.69	7.23	6.66	6.18	5.77	5.18	4.55	4.07	4.01	4.23	4.45	4.60	4.77	4.98	5.15	5.24	5.28	5.29	5.30	5.33	5.57	5.98	5.85	5.05	4.56	4.96	5.70	6.39	7.06	7.14	6.41	5.53	4.99	4.58	4.19	3.88	3.64	3.59	3.96	4.70	5.77	7.08	7.80	7.10	6.25	6.25
4.23	4.21	4.17	4.15	4.21	4.36	4.48	4.58	4.68	4.74	4.69	4.57	4.63	4.71	5.78	4.36	4.42	4.73	5.15	5.45	5.68	5.76	5.61	5.49	5.67	6.02	6.29	6.39	6.17	5.73	5.24	4.60	4.36	5.02	5.66	5.54	4.87	4.50	4.41	4.69	5.02	5.28	5.53	6.05	7.09	8.21	8.49	7.55	5.91	4.70	4.03	3.69	3.64	3.69	3.72	3.71	3.71	3.72	3.69	3.76	3.97	4.32	4.98	5.77	6.19	5.70	4.26	3.35	3.43	4.30	5.64	6.90	7.06	6.16	5.56	5.85	6.73	7.30	7.60	7.81	7.81	7.50	7.13	6.86	6.61	6.14	5.58	5.10	4.87	4.82	4.80	4.84	5.09	5.36	5.45	5.34	5.20	5.10	5.18	5.70	6.40	6.13	4.63	3.68	3.80	4.47	5.22	6.06	6.70	6.57	5.77	5.08	4.78	4.71	4.64	4.33	3.88	3.76	4.32	5.42	6.74	7.51	6.96	6.18	6.18
4.20	4.15	4.10	4.11	4.17	4.28	4.39	4.52	4.63	4.69	4.67	4.60	4.62	4.66	4.42	4.08	3.96	4.06	4.29	4.61	4.99	5.40	5.58	5.65	5.87	6.25	6.46	6.32	5.79	5.06	4.53	4.01	3.60	3.91	4.78	5.21	4.96	4.64	4.52	4.77	5.05	5.32	5.62	6.29	7.36	8.44	8.79	8.17	7.08	6.13	5.27	4.75	4.58	4.56	4.45	4.12	3.82	3.65	3.49	3.46	3.67	4.08	4.79	5.78	6.29	5.75	4.20	3.12	3.06	3.83	5.44	6.93	7.03	5.57	4.20	4.17	5.14	5.88	6.15	6.46	6.95	7.12	6.87	6.76	6.80	6.72	6.46	6.03	5.50	5.15	4.93	4.75	4.76	4.88	4.94	4.89	4.80	4.81	5.05	5.80	6.80	6.71	5.19	3.69	3.25	3.56	4.26	5.15	5.95	6.23	5.74	4.99	4.57	4.68	5.03	5.22	4.99	4.47	4.45	5.27	6.45	7.21	6.83	6.15	6.15
4.19	4.12	4.06	4.05	4.02	4.05	4.21	4.44	4.62	4.71	4.76	4.75	4.82	4.93	4.87	4.59	4.26	4.03	4.02	4.20	4.53	4.95	5.30	5.57	5.97	6.52	6.86	6.67	5.99	5.14	4.46	3.96	3.50	3.34	3.82	4.53	4.75	4.65	4.58	4.80	5.06	5.34	5.67	6.31	7.29	8.42	8.97	8.63	7.78	7.09	6.51	5.81	5.14	4.70	4.39	4.10	3.82	3.58	3.36	3.29	3.45	3.81	4.55	5.71	6.41	5.89	4.36	3.14	2.86	3.45	5.17	7.01	7.31	5.80	3.83	3.23	4.04	4.82	4.82	4.85	5.46	6.05	5.87	5.53	5.63	5.73	5.89	5.84	5.52	5.18	4.89	4.54	4.27	4.15	4.27	4.51	4.66	4.75	5.04	5.72	6.85	7.30	6.66	5.17	3.95	3.58	3.86	4.56	5.33	5.78	5.64	4.99	4.32	4.12	4.47	5.09	5.56	5.47	5.21	5.57	6.31	6.89	6.74	6.32	6.32
4.20	4.10	3.94	3.81	3.68	3.71	3.97	4.33	4.57	4.71	4.79	4.81	4.90	5.11	5.30	5.32	5.02	4.61	4.42	4.47	4.66	4.96	5.26	5.56	5.96	6.56	7.07	7.06	6.62	6.01	5.37	4.82	4.36	3.93	3.73	4.06	4.47	4.65	4.76	4.97	5.18	5.41	5.71	6.21	7.00	8.12	8.90	8.80	8.02	7.28	6.81	6.37	5.67	4.86	4.31	4.12	3.97	3.75	3.50	3.41	3.52	3.77	4.47	5.71	6.49	6.08	4.74	3.51	2.99	3.30	4.86	6.98	7.59	6.37	4.22	2.96	3.22	3.91	3.86	3.65	4.13	4.98	4.96	4.41	4.20	4.23	4.45	4.77	4.94	4.92	4.76	4.44	4.09	3.94	4.17	4.61	4.92	5.10	5.29	5.69	6.47	7.31	7.51	6.82	5.55	4.42	4.12	4.48	5.16	5.71	5.88	5.48	4.66	4.08	4.14	4.65	5.40	5.85	5.94	6.13	6.41	6.61	6.54	6.42	6.42
4.24	4.09	3.76	3.44	3.27	3.37	3.66	4.05	4.40	4.58	4.63	4.73	4.90	5.14	5.44	5.75	5.78	5.55	5.36	5.31	5.38	5.52	5.72	5.94	6.19	6.58	6.90	6.88	6.74	6.44	5.95	5.39	4.85	4.34	3.92	3.99	4.31	4.64	4.91	5.12	5.27	5.41	5.61	6.02	6.68	7.67	8.57	8.71	8.08	7.29	6.70	6.40	6.13	5.70	5.13	4.62	4.30	4.05	3.88	3.89	4.04	4.22	4.75	5.81	6.55	6.23	5.00	3.86	3.26	3.42	4.75	6.88	7.84	7.00	4.96	3.36	3.06	3.34	3.35	3.06	3.17	3.84	4.16	3.84	3.52	3.48	3.65	3.98	4.31	4.52	4.55	4.37	4.15	4.13	4.37	4.73	5.01	5.27	5.55	5.77	5.92	6.47	7.23	7.35	6.62	5.31	4.68	4.81	5.39	6.03	6.41	6.32	5.54	4.51	4.10	4.35	5.00	5.65	6.14	6.49	6.68	6.52	6.19	6.05	6.05
4.28	4.15	3.84	3.49	3.31	3.45	3.69	3.97	4.32	4.48	4.49	4.68	5.02	5.32	5.59	5.93	6.11	6.14	6.10	6.09	6.09	6.05	6.07	6.24	6.53	6.85	6.79	6.34	6.04	5.91	5.52	4.98	4.43	3.94	3.77	3.96	4.28	4.58	4.85	5.04	5.16	5.25	5.39	5.73	6.39	7.25	8.13	8.39	7.91	7.23	6.68	6.33	6.10	5.91	5.59	5.04	4.56	4.24	4.08	4.11	4.34	4.62	5.04	5.89	6.66	6.46	5.20	3.96	3.41	3.63	4.82	6.80	8.18	7.93	6.03	4.39	3.57	3.38	3.39	3.12	2.89	3.11	3.47	3.47	3.30	3.32	3.54	3.79	3.98	4.15	4.24	4.22	4.16	4.17	4.27	4.42	4.57	4.90	5.50	5.92	5.64	5.37	6.10	6.93	6.94	6.04	5.22	5.11	5.45	5.89	6.39	6.74	6.44	5.28	4.28	4.04	4.43	5.15	5.98	6.67	7.01	6.74	5.94	5.49	5.49
4.34	4.22	4.02	3.88	3.88	4.08	4.31	4.49	4.67	4.68	4.59	4.73	5.14	5.53	5.80	5.98	6.13	6.21	6.20	6.20	6.20	6.13	6.05	6.16	6.64	7.23	7.12	6.30	5.71	5.55	5.29	4.78	4.25	3.78	3.67	3.91	4.23	4.45	4.62	4.78	4.93	5.08	5.29	5.60	6.16	7.00	7.81	8.01	7.44	6.58	6.12	5.89	5.62	5.37	5.16	4.88	4.51	4.21	4.04	4.00	4.21	4.60	5.08	5.85	6.70	6.78	5.75	4.33	3.52	3.58	4.57	6.47	8.44	8.98	7.65	5.93	4.60	3.93	3.87	3.63	3.16	3.02	3.21	3.35	3.30	3.39	3.66	3.85	3.94	4.05	4.11	4.09	4.12	4.16	4.24	4.40	4.52	4.76	5.34	6.02	5.80	4.92	4.85	5.76	6.53	6.38	5.64	5.16	5.05	5.16	5.62	6.46	6.88	6.34	5.24	4.60	4.62	5.06	5.83	6.72	7.35	7.23	6.06	5.33	5.33
4.38	4.26	4.07	4.17	4.31	4.65	4.93	5.12	5.29	5.27	5.03	4.96	5.24	5.63	5.90	6.00	6.04	6.03	5.98	5.93	5.94	5.92	5.82	5.85	6.36	7.30	7.47	6.85	6.32	6.17	6.03	5.65	5.01	4.30	3.92	3.95	4.12	4.24	4.35	4.51	4.68	4.92	5.23	5.60	6.12	6.95	7.76	7.82	6.94	5.73	5.07	4.85	4.68	4.50	4.39	4.34	4.25	4.13	4.05	4.05	4.23	4.61	5.09	5.74	6.53	6.85	6.14	4.74	3.59	3.31	4.00	5.67	7.99	9.36	9.07	7.56	5.93	4.82	4.68	4.38	3.83	3.54	3.57	3.71	3.66	3.66	3.81	3.96	4.04	4.16	4.20	4.11	4.09	4.20	4.40	4.63	4.82	5.01	5.40	6.01	6.13	5.35	4.49	4.52	5.42	5.95	5.75	5.24	4.88	4.77	5.00	5.76	6.61	6.84	6.40	5.85	5.58	5.58	5.91	6.64	7.52	7.78	6.72	5.80	5.80
4.42	4.28	4.06	4.24	4.36	4.83	5.22	5.48	5.74	5.90	5.76	5.52	5.50	5.69	5.83	5.90	5.92	5.90	5.84	5.83	5.90	5.90	5.75	5.68	6.06	6.97	7.35	7.14	6.87	6.80	6.76	6.56	5.98	5.04	4.30	4.04	4.04	4.01	4.11	4.31	4.54	4.82	5.19	5.64	6.21	7.07	7.86	7.89	6.92	5.65	4.80	4.22	3.68	3.55	3.68	3.90	4.10	4.18	4.16	4.17	4.36	4.73	5.19	5.75	6.38	6.71	6.18	4.91	3.61	3.09	3.40	4.62	6.85	8.88	9.60	9.08	7.73	6.44	6.01	5.56	5.04	4.70	4.58	4.50	4.23	3.99	3.98	4.06	4.14	4.24	4.25	4.10	3.96	4.00	4.16	4.42	4.75	5.13	5.48	5.84	6.15	6.12	5.35	4.48	4.58	5.14	5.39	5.31	5.15	5.03	4.95	5.20	5.89	6.51	6.59	6.39	6.19	6.06	6.06	6.39	7.22	7.89	7.36	6.68	6.68
4.50	4.35	4.12	4.09	4.37	4.89	5.41	5.74	5.98	6.19	6.23	6.02	5.74	5.61	5.62	5.69	5.78	5.85	5.81	5.77	5.93	6.06	5.98	5.89	6.16	6.68	6.81	6.54	6.38	6.43	6.55	6.64	6.37	5.56	4.60	4.08	3.90	3.75	3.82	4.13	4.49	4.91	5.31	5.76	6.35	7.23	7.95	8.05	7.42	6.60	5.82	4.93	3.92	3.55	3.61	3.87	4.15	4.32	4.37	4.41	4.55	4.94	5.43	5.96	6.46	6.71	6.28	5.10	3.84	3.17	3.20	4.00	5.65	7.68	9.18	9.65	9.22	8.25	7.49	6.98	6.52	6.06	5.65	5.26	4.69	4.21	4.09	4.12	4.18	4.25	4.26	4.09	3.84	3.68	3.72	4.02	4.51	5.06	5.47	5.58	5.60	6.09	6.20	5.51	4.87	4.79	5.03	5.27	5.43	5.52	5.50	5.48	5.64	5.96	6.09	5.98	5.97	6.02	6.02	6.09	6.60	7.45	7.52	7.26	7.26
4.63	4.46	4.16	4.01	4.17	4.60	5.08	5.46	5.73	5.94	6.06	5.98	5.74	5.49	5.40	5.46	5.62	5.79	5.75	5.58	5.68	5.95	6.10	6.13	6.39	6.64	6.39	5.79	5.45	5.49	5.71	6.02	6.14	5.73	4.84	4.11	3.73	3.53	3.65	4.05	4.55	5.07	5.49	5.92	6.48	7.31	7.97	8.04	7.58	7.23	6.95	6.41	5.44	4.50	4.04	4.00	4.12	4.27	4.44	4.62	4.83	5.25	5.73	6.22	6.67	6.93	6.63	5.63	4.50	3.65	3.38	3.70	4.73	6.27	7.95	9.11	9.28	8.84	8.35	7.90	7.30	6.68	6.13	5.59	4.86	4.26	4.10	4.14	4.18	4.25	4.30	4.17	3.95	3.71	3.65	3.88	4.42	5.02	5.47	5.49	5.08	5.25	5.98	6.00	5.44	5.00	4.95	5.17	5.49	5.76	5.93	5.91	5.85	5.87	5.75	5.49	5.54	5.80	5.94	5.99	6.29	6.97	7.39	7.42	7.42
4.70	4.53	4.15	3.83	3.73	3.90	4.21	4.58	4.94	5.23	5.44	5.54	5.49	5.35	5.27	5.32	5.51	5.75	5.77	5.55	5.48	5.68	5.95	6.20	6.60	6.71	6.19	5.44	4.87	4.66	4.79	5.08	5.38	5.28	4.76	4.16	3.78	3.66	3.85	4.28	4.72	5.10	5.50	5.96	6.56	7.39	7.99	7.83	7.23	6.94	6.95	6.89	6.45	5.49	4.43	3.96	3.94	4.06	4.27	4.57	4.96	5.47	5.95	6.43	6.87	7.15	6.98	6.18	5.08	4.03	3.49	3.53	4.14	5.27	6.75	7.96	8.43	8.36	8.23	8.02	7.51	6.90	6.36	5.74	4.96	4.38	4.19	4.20	4.22	4.26	4.29	4.29	4.22	4.09	3.98	4.05	4.46	5.04	5.47	5.55	5.11	4.82	5.30	5.67	5.43	5.04	4.84	4.89	5.08	5.29	5.53	5.68	5.81	5.98	5.87	5.52	5.49	5.73	5.92	6.06	6.26	6.71	7.21	7.40	7.40
4.76	4.58	4.24	3.88	3.66	3.34	3.45	3.75	4.10	4.45	4.78	5.05	5.17	5.13	5.05	5.08	5.35	5.72	5.94	5.94	5.81	5.84	6.02	6.38	6.97	7.01	6.16	5.25	4.60	4.21	4.06	4.12	4.24	4.27	4.08	3.84	3.77	3.87	4.09	4.35	4.62	4.96	5.35	5.84	6.53	7.45	8.04	7.72	6.84	6.28	6.14	6.20	6.26	5.81	4.68	3.94	3.76	3.83	4.02	4.38	4.89	5.49	6.01	6.53	7.00	7.31	7.23	6.51	5.28	4.02	3.34	3.27	3.71	4.68	5.97	7.15	7.75	7.62	7.37	7.43	7.43	7.21	6.92	6.43	5.76	5.13	4.73	4.54	4.40	4.35	4.33	4.35	4.41	4.49	4.47	4.46	4.68	5.11	5.45	5.49	5.19	4.87	4.99	5.28	5.20	4.90	4.62	4.51	4.51	4.53	4.70	5.00	5.32	5.83	6.03	5.79	5.64	5.70	5.84	6.07	6.28	6.61	7.06	7.33	7.33
4.84	4.74	4.59	4.31	3.84	3.51	3.33	3.43	3.66	3.93	4.30	4.68	4.91	4.93	4.75	4.63	4.88	5.40	5.86	6.08	6.16	6.22	6.35	6.70	7.37	7.59	6.84	5.70	4.90	4.39	3.95	3.72	3.64	3.53	3.39	3.41	3.55	3.73	3.81	3.95	4.21	4.62	5.09	5.61	6.39	7.42	8.12	7.83	6.79	5.96	5.50	5.22	5.28	5.36	4.72	3.92	3.59	3.59	3.74	4.04	4.57	5.24	5.85	6.43	7.00	7.42	7.50	6.92	5.59	4.15	3.27	3.03	3.32	4.14	5.27	6.77	7.60	7.38	6.61	6.38	6.65	6.93	7.08	7.01	6.69	6.15	5.53	5.05	4.71	4.51	4.41	4.38	4.43	4.58	4.73	4.85	4.99	5.26	5.51	5.37	4.95	4.73	4.84	5.06	5.05	4.80	4.45	4.23	4.18	4.12	4.19	4.39	4.68	5.28	5.78	5.82	5.71	5.67	5.76	6.05	6.37	6.64	6.96	7.17	7.17
4.85	4.87	4.86	4.69	4.30	3.85	3.57	3.55	3.61	3.71	3.98	4.37	4.66	4.80	4.60	4.10	3.88	4.35	4.99	5.55	5.93	6.23	6.51	6.88	7.45	7.97	7.89	7.02	6.05	5.44	4.95	4.47	4.20	3.95	3.69	3.57	3.56	3.57	3.52	3.66	3.96	4.36	4.89	5.42	6.21	7.31	8.17	8.13	7.22	6.28	5.58	4.85	4.47	4.44	4.07	3.57	3.37	3.37	3.47	3.67	4.14	4.81	5.54	6.17	6.81	7.40	7.75	7.47	6.34	4.78	3.58	3.04	3.04	3.60	4.78	6.47	7.68	7.71	6.63	5.63	5.43	5.69	6.02	6.28	6.35	6.13	5.73	5.30	4.92	4.67	4.52	4.47	4.48	4.56	4.73	5.02	5.24	5.48	5.72	5.51	4.85	4.50	4.63	4.90	4.97	4.79	4.43	4.05	3.88	3.85	3.95	4.05	4.23	4.69	5.21	5.51	5.66	5.73	5.81	6.07	6.51	6.83	6.97	6.93	6.93
4.67	4.73	4.76	4.66	4.41	4.06	3.75	3.58	3.57	3.68	3.91	4.21	4.47	4.71	4.70	4.14	3.45	3.35	3.87	4.61	5.18	5.66	6.22	6.74	7.19	7.78	8.25	8.11	7.51	6.96	6.48	6.00	5.59	5.13	4.63	4.16	3.81	3.61	3.54	3.72	4.03	4.41	4.88	5.34	6.05	7.13	8.12	8.42	7.91	7.05	6.24	5.37	4.52	4.01	3.50	3.17	3.17	3.26	3.32	3.42	3.74	4.39	5.17	5.88	6.51	7.17	7.76	7.90	7.16	5.55	4.14	3.38	3.12	3.31	4.24	5.90	7.56	8.06	7.28	5.93	4.97	4.70	4.69	4.73	4.92	5.08	5.12	5.05	4.91	4.77	4.68	4.69	4.78	4.84	4.94	5.18	5.46	5.70	5.97	5.90	5.31	4.76	4.66	4.85	4.95	4.89	4.61	4.14	3.78	3.74	3.90	4.00	4.17	4.54	4.91	5.25	5.63	5.88	5.95	6.07	6.53	7.01	7.08	6.90	6.90
4.44	4.42	4.42	4.43	4.35	4.15	3.98	3.64	3.65	3.87	4.16	4.40	4.60	4.87	5.17	5.08	4.33	3.72	3.75	4.14	4.57	5.00	5.72	6.45	6.80	7.17	7.74	8.01	7.92	7.70	7.36	6.95	6.52	5.96	5.30	4.63	4.08	3.77	3.64	3.74	4.11	4.57	5.01	5.39	5.94	6.85	7.82	8.38	8.36	7.79	6.98	6.12	5.32	4.49	3.76	3.26	3.11	3.13	3.17	3.19	3.37	3.93	4.79	5.61	6.23	6.82	7.47	8.01	7.82	6.60	5.00	3.97	3.46	3.28	3.67	5.10	7.03	8.06	7.85	6.74	5.51	4.93	4.60	4.19	4.08	4.23	4.41	4.63	4.75	4.72	4.69	4.72	4.84	4.95	5.10	5.35	5.64	5.84	6.03	6.05	5.72	5.25	4.96	4.95	5.02	5.09	5.06	4.73	4.30	4.12	4.16	4.23	4.41	4.74	5.04	5.27	5.57	5.90	6.04	6.07	6.41	6.95	7.06	6.95	6.95
4.42	4.31	4.24	4.32	4.39	4.41	4.33	4.22	4.19	4.32	4.66	5.00	5.25	5.56	5.92	6.12	6.06	5.63	5.14	5.00	5.01	5.12	5.64	6.30	6.52	6.64	7.01	7.23	7.21	7.25	7.20	7.00	6.70	6.26	5.70	5.04	4.42	4.02	3.81	3.78	4.10	4.64	5.15	5.54	5.97	6.58	7.30	7.97	8.43	8.37	7.79	7.13	6.37	5.40	4.41	3.62	3.13	2.96	2.94	2.95	3.12	3.58	4.38	5.25	5.92	6.42	6.96	7.63	7.96	7.43	5.99	4.63	3.91	3.55	3.64	4.59	6.40	7.80	8.09	7.39	6.37	5.86	5.58	4.95	4.35	4.15	4.16	4.36	4.54	4.54	4.47	4.42	4.43	4.52	4.77	5.20	5.66	5.91	5.96	5.88	5.66	5.41	5.18	5.07	5.07	5.22	5.48	5.52	5.28	5.01	4.86	4.74	4.72	4.86	5.02	5.12	5.28	5.59	5.89	6.08	6.32	6.64	6.81	6.83	6.83
4.58	4.40	4.27	4.35	4.50	4.71	4.94	5.08	5.11	5.14	5.37	5.73	6.06	6.33	6.52	6.64	6.84	6.93	6.76	6.49	6.22	6.01	6.10	6.42	6.50	6.49	6.78	6.87	6.51	6.29	6.37	6.36	6.16	5.90	5.59	5.18	4.73	4.33	4.08	3.95	4.09	4.50	5.03	5.56	6.05	6.46	6.81	7.36	8.16	8.66	8.57	8.09	7.37	6.31	5.02	3.99	3.32	2.99	2.89	2.90	3.04	3.38	3.98	4.83	5.59	6.01	6.35	6.97	7.55	7.50	6.56	5.23	4.41	4.03	3.97	4.52	6.01	7.44	8.06	7.69	6.81	6.23	6.07	5.75	5.08	4.51	4.21	4.23	4.32	4.29	4.21	4.16	4.16	4.24	4.45	4.88	5.49	5.92	5.94	5.64	5.28	5.12	5.11	5.07	5.06	5.23	5.59	5.83	5.89	5.78	5.57	5.26	4.91	4.66	4.59	4.62	4.76	5.06	5.47	5.93	6.27	6.41	6.50	6.56	6.56
4.75	4.58	4.43	4.47	4.57	4.80	5.13	5.45	5.68	5.80	5.92	6.09	6.26	6.39	6.50	6.46	6.41	6.60	6.79	6.80	6.67	6.49	6.49	6.63	6.61	6.58	6.87	7.04	6.66	6.14	5.88	5.73	5.50	5.25	5.01	4.81	4.66	4.47	4.25	3.99	3.95	4.24	4.74	5.35	6.04	6.41	6.48	6.76	7.56	8.39	8.74	8.64	8.19	7.30	6.00	4.86	4.04	3.46	3.19	3.08	3.06	3.23	3.67	4.49	5.37	5.81	6.00	6.41	6.91	7.09	6.59	5.57	4.79	4.39	4.26	4.62	5.73	7.07	7.90	7.76	6.88	6.10	5.82	5.74	5.39	4.78	4.30	4.20	4.18	4.08	3.99	3.99	4.15	4.35	4.53	4.79	5.30	5.89	6.03	5.54	4.85	4.68	4.85	4.97	5.04	5.22	5.47	5.65	5.77	5.80	5.69	5.42	5.01	4.61	4.40	4.39	4.49	4.73	5.12	5.67	6.14	6.26	6.24	6.25	6.25
4.83	4.75	4.61	4.55	4.58	4.73	4.99	5.26	5.55	5.78	5.85	5.82	5.76	5.78	5.91	5.86	5.61	5.61	5.82	6.10	6.25	6.28	6.44	6.66	6.70	6.70	6.92	7.10	6.97	6.68	6.33	5.97	5.69	5.39	4.97	4.59	4.42	4.39	4.25	4.02	4.02	4.31	4.77	5.36	6.04	6.39	6.29	6.28	6.81	7.61	8.25	8.61	8.61	8.10	7.18	6.10	5.14	4.28	3.70	3.34	3.14	3.17	3.54	4.29	5.22	5.78	5.97	6.18	6.48	6.62	6.34	5.65	5.02	4.57	4.42	4.69	5.54	6.75	7.74	7.86	7.08	6.18	5.68	5.54	5.43	4.97	4.45	4.30	4.21	4.02	3.81	3.73	3.90	4.27	4.58	4.80	5.21	5.82	6.13	5.68	4.78	4.43	4.63	4.91	5.09	5.22	5.31	5.38	5.39	5.41	5.42	5.37	5.21	5.00	4.81	4.70	4.70	4.83	5.14	5.60	6.05	6.16	6.03	5.98	5.98
4.76	4.73	4.62	4.51	4.53	4.70	4.95	5.10	5.18	5.26	5.30	5.27	5.22	5.25	5.41	5.41	5.16	5.03	5.15	5.47	5.82	5.92	6.07	6.39	6.64	6.85	7.05	7.01	6.82	6.75	6.64	6.38	6.15	5.92	5.49	4.89	4.46	4.34	4.29	4.25	4.42	4.74	5.10	5.55	6.06	6.38	6.21	5.94	6.19	6.81	7.47	8.10	8.42	8.25	7.75	7.00	6.05	5.09	4.29	3.68	3.31	3.24	3.51	4.12	4.99	5.69	6.05	6.22	6.32	6.28	6.02	5.59	5.11	4.69	4.50	4.66	5.30	6.39	7.55	7.97	7.33	6.33	5.71	5.47	5.43	5.20	4.72	4.45	4.32	4.13	3.88	3.65	3.64	3.91	4.30	4.63	5.11	5.75	6.15	5.85	4.96	4.41	4.46	4.77	5.03	5.10	5.16	5.25	5.26	5.26	5.33	5.42	5.48	5.48	5.38	5.24	5.16	5.23	5.44	5.76	6.10	6.17	5.90	5.73	5.73
4.60	4.55	4.46	4.35	4.36	4.56	4.80	4.88	4.81	4.71	4.70	4.77	4.87	5.02	5.18	5.19	4.98	4.80	4.85	5.22	5.65	5.73	5.63	5.84	6.28	6.89	7.31	7.25	6.83	6.56	6.37	6.04	5.77	5.69	5.54	5.12	4.64	4.42	4.38	4.50	4.73	5.02	5.33	5.69	6.01	6.31	6.18	5.73	5.75	6.29	6.89	7.49	7.84	7.75	7.42	6.98	6.32	5.47	4.69	4.05	3.57	3.36	3.50	4.03	4.77	5.51	6.06	6.31	6.32	6.10	5.75	5.44	5.07	4.70	4.52	4.62	5.04	5.91	7.19	7.97	7.49	6.34	5.58	5.24	5.16	5.08	4.80	4.51	4.36	4.25	4.10	3.89	3.78	3.87	4.11	4.42	4.95	5.63	6.09	5.92	5.18	4.52	4.31	4.38	4.65	4.81	4.97	5.21	5.33	5.38	5.49	5.63	5.77	5.82	5.76	5.62	5.49	5.49	5.68	5.98	6.27	6.29	5.89	5.60	5.60
4.58	4.45	4.30	4.16	4.07	4.17	4.34	4.39	4.34	4.27	4.25	4.30	4.45	4.70	4.93	4.99	4.89	4.78	4.78	5.11	5.68	5.81	5.39	5.17	5.74	6.67	7.41	7.65	7.36	6.95	6.56	5.89	5.21	4.94	4.96	4.87	4.62	4.42	4.37	4.50	4.74	5.04	5.43	5.80	5.93	6.07	6.02	5.57	5.45	6.01	6.69	7.23	7.47	7.17	6.55	6.16	5.81	5.26	4.71	4.25	3.85	3.58	3.63	4.06	4.66	5.34	6.02	6.37	6.36	6.03	5.59	5.26	4.92	4.63	4.53	4.66	4.99	5.59	6.79	7.88	7.61	6.32	5.35	4.88	4.62	4.53	4.46	4.39	4.32	4.28	4.24	4.15	4.10	4.16	4.33	4.55	4.90	5.47	5.94	5.87	5.34	4.72	4.31	4.13	4.26	4.55	4.85	5.25	5.60	5.73	5.81	5.95	6.11	6.18	6.09	5.86	5.62	5.54	5.72	6.11	6.47	6.43	5.91	5.57	5.57
4.70	4.51	4.28	4.07	3.83	3.75	3.84	3.93	3.94	3.89	3.87	3.87	3.99	4.28	4.59	4.76	4.79	4.82	4.92	5.24	5.83	6.05	5.36	4.69	5.13	6.11	7.06	7.65	7.68	7.42	7.21	6.74	5.80	4.90	4.48	4.34	4.28	4.29	4.33	4.42	4.68	5.03	5.51	5.99	6.02	5.77	5.57	5.24	5.13	5.73	6.66	7.32	7.56	7.18	6.26	5.43	4.94	4.61	4.32	4.12	3.94	3.79	3.89	4.27	4.74	5.26	5.97	6.43	6.41	6.03	5.58	5.22	4.89	4.62	4.52	4.70	5.05	5.56	6.60	7.85	7.76	6.39	5.26	4.58	4.17	3.99	4.03	4.17	4.24	4.25	4.26	4.26	4.32	4.44	4.65	4.89	5.09	5.42	5.78	5.74	5.34	4.87	4.47	4.20	4.26	4.59	4.98	5.44	5.84	6.05	6.15	6.27	6.41	6.51	6.40	6.07	5.64	5.32	5.38	5.90	6.55	6.63	6.00	5.61	5.61
4.83	4.65	4.40	4.16	3.79	3.49	3.47	3.70	3.84	3.88	3.92	3.96	3.98	4.17	4.47	4.74	4.87	4.94	5.09	5.43	6.02	6.38	5.54	4.28	4.24	5.14	6.24	7.18	7.49	7.34	7.34	7.41	7.01	5.92	4.80	4.23	4.14	4.29	4.43	4.52	4.70	4.99	5.52	6.19	6.35	5.80	5.14	4.75	4.73	5.31	6.44	7.37	7.83	7.72	6.95	5.77	4.82	4.26	3.88	3.77	3.78	3.77	3.92	4.35	4.87	5.36	5.97	6.49	6.48	6.02	5.57	5.24	4.95	4.70	4.56	4.69	5.06	5.61	6.63	7.95	8.02	6.71	5.52	4.69	4.11	3.84	3.84	4.01	4.15	4.20	4.22	4.24	4.33	4.47	4.71	5.06	5.32	5.50	5.70	5.62	5.22	4.86	4.61	4.43	4.44	4.67	5.01	5.37	5.69	5.94	6.11	6.24	6.41	6.60	6.62	6.29	5.70	5.01	4.67	5.15	6.23	6.72	6.26	5.84	5.84
4.87	4.76	4.53	4.27	3.87	3.44	3.32	3.60	3.97	4.29	4.53	4.59	4.60	4.69	4.86	5.06	5.20	5.25	5.25	5.43	6.09	6.79	6.27	4.54	3.65	4.01	5.17	6.49	7.12	6.93	6.70	7.06	7.42	7.05	5.99	5.07	4.59	4.50	4.49	4.49	4.59	4.82	5.37	6.23	6.69	6.28	5.23	4.39	4.30	4.87	5.93	7.06	7.82	8.09	7.79	6.95	5.89	4.94	4.14	3.76	3.71	3.68	3.73	4.10	4.76	5.39	6.03	6.59	6.63	6.05	5.44	5.08	4.86	4.69	4.61	4.73	5.05	5.61	6.66	8.05	8.35	7.24	6.08	5.38	4.71	4.18	3.94	3.98	4.07	4.11	4.12	4.11	4.17	4.33	4.63	5.09	5.46	5.63	5.70	5.53	5.08	4.78	4.65	4.58	4.59	4.66	4.74	4.88	5.05	5.24	5.43	5.63	5.91	6.36	6.65	6.48	5.88	5.02	4.32	4.39	5.45	6.42	6.41	6.15	6.15
4.82	4.74	4.56	4.33	4.01	3.63	3.46	3.67	4.05	4.47	4.87	5.14	5.27	5.32	5.33	5.31	5.28	5.25	5.22	5.27	5.84	6.87	7.05	5.80	4.09	3.54	4.23	5.74	6.81	6.68	5.92	5.89	6.65	7.10	6.75	5.91	5.08	4.56	4.30	4.21	4.32	4.59	5.14	6.02	6.77	6.86	5.90	4.43	3.92	4.40	5.32	6.35	7.28	7.90	8.02	7.58	6.90	6.17	5.25	4.41	4.01	3.80	3.66	3.80	4.39	5.19	5.93	6.61	6.80	6.20	5.41	4.93	4.69	4.59	4.61	4.78	5.09	5.60	6.59	7.93	8.48	7.82	6.77	6.18	5.63	4.84	4.23	4.09	4.05	4.00	4.00	3.99	4.01	4.17	4.52	5.05	5.50	5.72	5.74	5.47	4.96	4.69	4.60	4.55	4.57	4.60	4.59	4.51	4.43	4.41	4.48	4.73	5.21	5.93	6.55	6.60	6.06	5.31	4.60	4.26	4.78	5.82	6.30	6.33	6.33
4.77	4.68	4.51	4.33	4.14	3.90	3.75	3.82	4.00	4.23	4.57	4.91	5.14	5.26	5.30	5.24	5.06	4.94	4.98	5.01	5.37	6.37	7.17	6.83	5.39	4.03	3.92	5.09	6.59	6.83	5.81	4.99	5.21	6.10	6.44	6.00	5.15	4.47	4.15	4.07	4.19	4.48	4.98	5.69	6.48	7.10	6.71	5.00	3.80	3.87	4.70	5.58	6.41	7.22	7.67	7.49	7.00	6.56	6.03	5.26	4.55	4.11	3.80	3.70	4.08	4.83	5.59	6.41	6.80	6.38	5.63	5.07	4.71	4.54	4.57	4.78	5.09	5.57	6.45	7.65	8.30	7.99	7.16	6.54	6.09	5.40	4.60	4.26	4.11	3.96	3.91	3.90	3.91	4.01	4.32	4.92	5.48	5.77	5.83	5.50	4.89	4.58	4.50	4.46	4.45	4.46	4.45	4.39	4.28	4.16	4.10	4.25	4.81	5.65	6.43	6.65	6.16	5.39	4.78	4.36	4.44	5.15	5.91	6.22	6.22
4.78	4.66	4.45	4.31	4.19	4.06	3.94	3.94	4.05	4.15	4.29	4.47	4.63	4.78	4.92	5.01	4.93	4.82	4.80	4.78	4.97	5.69	6.66	6.94	6.09	4.66	4.03	4.75	6.34	7.09	6.54	5.22	4.49	4.81	5.54	5.61	5.04	4.45	4.19	4.14	4.27	4.50	4.89	5.39	6.03	6.93	7.21	6.02	4.24	3.68	4.20	4.98	5.66	6.48	7.19	7.25	6.78	6.28	5.95	5.55	4.96	4.44	4.07	3.89	4.07	4.63	5.33	6.17	6.66	6.45	5.89	5.40	4.95	4.62	4.51	4.65	4.94	5.40	6.23	7.33	8.04	7.78	6.99	6.37	5.93	5.44	4.82	4.45	4.26	4.05	3.90	3.83	3.82	3.88	4.15	4.78	5.47	5.86	5.98	5.66	4.92	4.50	4.42	4.45	4.54	4.63	4.63	4.63	4.66	4.63	4.44	4.34	4.78	5.60	6.37	6.69	6.29	5.42	4.75	4.41	4.38	4.75	5.44	5.83	5.83
4.88	4.68	4.41	4.27	4.18	4.08	4.01	4.06	4.18	4.24	4.21	4.23	4.33	4.51	4.73	4.87	4.90	4.87	4.81	4.73	4.84	5.33	6.17	6.67	6.14	4.84	4.06	4.48	5.93	7.05	7.15	6.22	4.89	4.34	4.65	5.00	4.79	4.35	4.15	4.16	4.34	4.59	4.90	5.20	5.58	6.49	7.32	6.84	5.12	3.91	3.89	4.50	5.11	5.85	6.70	7.08	6.77	6.11	5.59	5.30	5.00	4.64	4.37	4.27	4.42	4.84	5.44	6.14	6.55	6.41	5.94	5.54	5.17	4.76	4.50	4.48	4.68	5.13	5.98	7.11	7.88	7.68	6.87	6.22	5.68	5.19	4.71	4.48	4.38	4.20	4.01	3.87	3.78	3.79	4.01	4.59	5.36	5.90	6.13	5.84	5.01	4.44	4.33	4.44	4.73	5.10	5.34	5.44	5.56	5.62	5.41	5.07	5.17	5.77	6.41	6.73	6.47	5.75	5.11	4.71	4.59	4.79	5.23	5.51	5.51
5.08	4.80	4.41	4.24	4.14	4.02	3.96	4.10	4.32	4.38	4.23	4.16	4.25	4.50	4.75	4.90	4.96	4.97	4.93	4.93	5.09	5.51	6.20	6.62	6.21	5.04	4.07	4.17	5.37	6.64	7.24	6.93	5.89	4.87	4.51	4.57	4.49	4.16	3.97	4.02	4.26	4.61	4.97	5.12	5.24	5.97	7.11	7.22	5.92	4.33	3.75	4.01	4.53	5.16	6.01	6.74	6.83	6.27	5.55	5.08	4.89	4.71	4.57	4.60	4.79	5.10	5.59	6.21	6.56	6.38	5.86	5.47	5.22	4.89	4.62	4.54	4.63	5.01	5.89	7.00	7.81	7.71	6.92	6.23	5.74	5.18	4.60	4.33	4.31	4.24	4.13	4.00	3.84	3.74	3.82	4.24	4.95	5.71	6.22	6.08	5.22	4.46	4.24	4.31	4.63	5.20	5.72	6.04	6.28	6.49	6.48	6.17	5.95	6.18	6.60	6.80	6.54	5.96	5.45	5.06	4.87	4.93	5.20	5.36	5.36
5.29	4.95	4.43	4.19	4.08	3.94	3.79	3.91	4.29	4.47	4.39	4.22	4.21	4.42	4.68	4.89	5.05	5.07	5.04	5.12	5.37	5.79	6.40	6.80	6.42	5.28	4.17	3.90	4.75	6.12	7.00	7.10	6.46	5.55	4.95	4.68	4.45	4.09	3.81	3.82	4.06	4.46	4.89	5.01	4.96	5.51	6.74	7.33	6.51	4.87	3.83	3.57	3.80	4.35	5.15	6.06	6.58	6.39	5.73	5.15	4.89	4.73	4.61	4.62	4.75	5.00	5.47	6.15	6.58	6.48	5.99	5.49	5.22	4.97	4.74	4.66	4.72	5.00	5.76	6.92	7.79	7.73	6.87	6.05	5.66	5.29	4.72	4.30	4.20	4.17	4.12	4.04	3.90	3.74	3.71	3.96	4.53	5.29	6.09	6.31	5.61	4.67	4.27	4.23	4.42	4.81	5.31	5.70	6.00	6.39	6.77	6.84	6.65	6.68	6.94	7.00	6.59	5.96	5.52	5.22	5.04	5.02	5.17	5.27	5.27
5.46	5.06	4.41	4.08	3.98	3.88	3.64	3.52	3.80	4.24	4.42	4.31	4.15	4.20	4.40	4.71	5.01	5.05	4.93	4.94	5.17	5.66	6.35	6.86	6.65	5.77	4.57	3.86	4.21	5.52	6.65	7.03	6.58	5.74	5.21	4.94	4.66	4.21	3.99	3.70	3.88	4.24	4.66	4.78	4.73	5.14	6.30	7.27	6.93	5.53	4.26	3.53	3.28	3.53	4.23	5.18	6.01	6.18	5.73	5.18	4.89	4.72	4.61	4.58	4.63	4.83	5.30	5.98	6.46	6.49	6.20	5.73	5.31	5.01	4.73	4.62	4.67	4.89	5.54	6.76	7.79	7.78	6.84	5.80	5.28	5.00	4.60	4.24	4.10	4.06	4.04	4.00	3.92	3.80	3.73	3.86	4.22	4.77	5.63	6.26	5.94	5.02	4.43	4.28	4.37	4.56	4.76	4.93	5.05	5.30	5.95	6.60	6.83	6.95	7.22	7.28	6.78	6.05	5.61	5.36	5.20	5.15	5.20	5.25	5.25
5.68	5.25	4.52	4.08	3.92	3.83	3.56	3.22	3.21	3.67	4.12	4.26	4.14	4.02	4.09	4.43	4.77	4.84	4.66	4.53	4.75	5.33	6.08	6.63	6.61	6.14	5.32	4.33	4.04	4.92	6.27	6.98	6.71	5.82	5.17	4.88	4.66	4.30	3.81	3.60	3.78	4.19	4.57	4.77	4.83	5.11	6.00	7.09	7.14	6.15	5.00	4.13	3.52	3.28	3.52	4.32	5.35	5.82	5.52	5.06	4.80	4.67	4.65	4.77	4.88	5.01	5.36	5.92	6.31	6.29	6.14	5.88	5.46	5.07	4.76	4.58	4.63	4.85	5.45	6.64	7.78	7.92	7.02	5.77	4.99	4.59	4.22	4.00	3.94	3.94	3.97	3.98	3.93	3.88	3.87	3.96	4.18	4.54	5.22	6.00	6.05	5.36	4.65	4.33	4.27	4.33	4.38	4.39	4.42	4.54	5.02	5.89	6.58	6.96	7.32	7.46	6.91	6.00	5.49	5.31	5.25	5.23	5.26	5.30	5.30
5.85	5.55	4.90	4.31	3.95	3.76	3.52	3.15	2.97	3.26	4.15	4.18	4.26	4.03	3.94	4.14	4.41	4.58	4.49	4.34	4.51	5.07	5.82	6.33	6.34	6.13	5.80	5.07	4.37	4.62	5.85	6.88	6.90	6.04	5.09	4.59	4.38	4.11	3.74	3.54	3.80	4.30	4.74	5.09	5.35	5.60	6.20	7.05	7.24	6.58	5.64	4.84	4.22	3.73	3.52	3.86	4.79	5.49	5.42	5.01	4.75	4.61	4.58	4.78	5.00	5.12	5.38	5.91	6.27	6.13	5.89	5.79	5.53	5.19	4.89	4.70	4.70	4.83	5.33	6.52	7.79	8.16	7.33	6.01	5.02	4.55	4.21	3.89	3.80	3.84	3.89	3.93	3.93	3.95	4.03	4.19	4.41	4.68	5.12	5.76	5.99	5.58	4.85	4.32	4.07	4.06	4.20	4.29	4.31	4.37	4.65	5.31	6.12	6.75	7.29	7.55	7.03	5.99	5.32	5.12	5.15	5.21	5.29	5.34	5.34
5.84	5.67	5.19	4.55	4.01	3.71	3.52	3.22	2.98	3.09	3.54	4.08	4.33	4.12	3.85	3.88	4.14	4.38	4.44	4.38	4.51	4.99	5.66	6.08	6.03	5.87	5.78	5.44	4.81	4.65	5.46	6.65	7.06	6.39	5.22	4.49	4.17	4.00	3.79	3.71	4.00	4.50	4.91	5.29	5.69	6.13	6.71	7.32	7.43	6.90	6.08	5.25	4.60	4.14	3.83	3.83	4.38	5.14	5.35	5.04	4.69	4.48	4.36	4.45	4.70	4.90	5.20	5.76	6.21	6.15	5.87	5.75	5.57	5.30	5.09	4.95	4.86	4.78	5.00	6.03	7.59	8.29	7.67	6.37	5.26	4.66	4.31	3.95	3.70	3.72	3.80	3.84	3.85	3.89	4.04	4.27	4.52	4.79	5.11	5.58	5.84	5.58	4.95	4.37	4.01	3.96	4.20	4.41	4.38	4.25	4.26	4.65	5.42	6.28	7.08	7.51	7.19	6.31	5.54	5.15	5.07	5.12	5.24	5.32	5.32
5.78	5.56	5.05	4.53	4.02	3.70	3.54	3.34	3.07	2.97	3.82	3.77	4.20	4.21	4.00	3.93	4.14	4.39	4.52	4.61	4.79	5.22	5.78	5.95	5.71	5.51	5.47	5.33	4.94	4.67	5.14	6.32	7.11	6.86	5.78	4.82	4.36	4.15	4.02	3.97	4.17	4.48	4.75	5.07	5.51	6.11	6.89	7.63	7.85	7.42	6.66	5.82	5.01	4.38	4.05	3.94	4.12	4.70	5.15	5.01	4.60	4.33	4.17	4.20	4.45	4.73	5.07	5.57	6.03	6.16	6.02	5.83	5.62	5.37	5.23	5.24	5.28	5.18	5.07	5.60	7.06	8.07	7.78	6.67	5.49	4.84	4.49	4.02	3.61	3.56	3.67	3.73	3.74	3.74	3.85	4.10	4.35	4.62	4.98	5.38	5.64	5.49	5.00	4.49	4.12	4.01	4.18	4.39	4.40	4.24	4.15	4.36	4.95	5.83	6.71	7.28	7.19	6.52	5.78	5.28	5.08	5.07	5.18	5.27	5.27
6.01	5.52	4.81	4.38	3.98	3.66	3.53	3.43	3.16	3.80	3.04	3.49	4.01	4.35	4.42	4.38	4.51	4.72	4.83	4.89	5.09	5.56	6.11	6.15	5.64	5.28	5.18	5.07	4.81	4.57	4.82	5.85	6.94	7.14	6.41	5.41	4.75	4.40	4.16	4.00	4.00	4.17	4.46	4.80	5.24	5.83	6.65	7.62	8.24	8.13	7.46	6.66	5.80	4.95	4.39	4.17	4.06	4.25	4.78	4.92	4.56	4.30	4.18	4.22	4.41	4.71	5.05	5.44	5.79	5.97	5.96	5.83	5.63	5.43	5.30	5.32	5.54	5.80	5.78	5.88	6.75	7.72	7.70	6.82	5.77	5.16	4.82	4.26	3.69	3.49	3.57	3.67	3.70	3.65	3.67	3.88	4.15	4.41	4.78	5.19	5.46	5.42	5.10	4.70	4.33	4.14	4.21	4.41	4.57	4.55	4.43	4.52	4.99	5.69	6.45	7.05	7.16	6.59	5.78	5.27	5.10	5.10	5.19	5.27	5.27
6.46	5.84	4.92	4.51	4.18	3.79	3.56	3.50	3.34	3.86	3.14	3.47	3.94	4.44	4.74	4.82	4.93	5.05	5.05	4.96	5.01	5.54	6.35	6.54	5.93	5.32	5.08	4.97	4.76	4.55	4.65	5.37	6.50	7.07	6.66	5.74	4.95	4.44	4.12	3.88	3.82	3.99	4.28	4.57	4.94	5.47	6.20	7.17	8.13	8.49	8.13	7.32	6.40	5.49	4.82	4.55	4.29	4.07	4.38	4.72	4.59	4.37	4.32	4.40	4.52	4.74	5.02	5.32	5.56	5.63	5.68	5.66	5.55	5.50	5.46	5.32	5.33	5.75	6.19	6.46	6.98	7.63	7.60	6.80	6.02	5.62	5.35	4.83	4.14	3.72	3.64	3.71	3.75	3.70	3.63	3.73	4.02	4.35	4.69	5.05	5.30	5.33	5.19	4.93	4.61	4.39	4.40	4.62	4.92	5.02	4.86	4.83	5.16	5.70	6.33	6.97	7.28	6.89	5.96	5.29	5.12	5.13	5.22	5.31	5.31
6.74	6.21	5.35	4.94	4.68	4.25	3.79	3.61	3.54	3.38	3.32	3.50	3.86	4.34	4.70	4.81	4.85	4.92	4.96	4.84	4.76	5.19	6.19	6.68	6.21	5.45	5.09	5.02	4.90	4.75	4.78	5.19	6.08	6.85	6.77	5.91	4.97	4.34	4.02	3.88	3.90	4.06	4.29	4.45	4.65	5.03	5.63	6.45	7.51	8.37	8.42	7.72	6.77	5.86	5.19	4.91	4.69	4.34	4.28	4.52	4.60	4.49	4.46	4.56	4.65	4.77	5.00	5.27	5.40	5.46	5.53	5.56	5.50	5.50	5.61	5.59	5.41	5.42	5.83	6.47	7.18	7.74	7.65	6.98	6.43	6.15	5.90	5.43	4.75	4.12	3.81	3.77	3.79	3.75	3.65	3.64	3.85	4.26	4.67	4.98	5.14	5.17	5.14	5.04	4.91	4.82	4.74	4.71	4.98	5.26	5.27	5.18	5.31	5.66	6.21	6.87	7.38	7.28	6.45	5.56	5.18	5.10	5.19	5.31	5.31
6.75	6.33	5.61	5.16	4.94	4.70	4.26	3.84	3.64	3.54	3.45	3.44	3.62	4.00	4.39	4.52	4.52	4.60	4.73	4.72	4.63	4.90	5.78	6.52	6.29	5.50	5.04	5.00	4.98	4.93	5.03	5.38	6.00	6.74	6.98	6.43	5.44	4.52	4.03	3.95	4.07	4.29	4.45	4.48	4.52	4.69	5.11	5.79	6.81	7.97	8.43	7.95	7.07	6.19	5.49	5.19	4.99	4.69	4.47	4.50	4.57	4.53	4.53	4.66	4.79	4.85	4.99	5.19	5.36	5.48	5.56	5.60	5.58	5.50	5.52	5.67	5.76	5.71	5.73	6.15	6.97	7.60	7.63	7.23	6.77	6.39	6.10	5.67	5.02	4.37	3.92	3.79	3.79	3.76	3.67	3.60	3.70	4.06	4.58	4.94	5.02	5.01	5.03	5.03	5.09	5.27	5.38	5.13	5.04	5.26	5.42	5.42	5.41	5.56	5.99	6.61	7.23	7.44	6.91	5.96	5.32	5.05	5.14	5.30	5.30
6.65	6.33	5.73	5.20	4.87	4.85	4.75	4.34	3.88	3.65	3.54	3.38	3.32	3.55	3.92	4.20	4.35	4.46	4.61	4.72	4.71	4.90	5.66	6.37	6.28	5.50	4.90	4.81	4.86	4.84	4.99	5.43	6.03	6.71	7.17	7.01	6.22	5.12	4.20	3.94	4.04	4.26	4.44	4.50	4.52	4.61	4.87	5.37	6.26	7.46	8.22	8.03	7.27	6.46	5.78	5.44	5.20	4.89	4.66	4.56	4.55	4.52	4.52	4.68	4.94	5.04	5.01	5.10	5.29	5.47	5.59	5.62	5.63	5.61	5.50	5.48	5.71	6.02	6.20	6.34	6.75	7.17	7.27	7.10	6.79	6.38	6.00	5.62	5.08	4.45	3.95	3.77	3.78	3.79	3.72	3.61	3.60	3.84	4.38	4.89	5.02	4.99	5.01	5.04	5.16	5.47	5.84	5.77	5.51	5.43	5.47	5.50	5.48	5.51	5.75	6.23	6.88	7.30	7.03	6.24	5.50	5.06	5.10	5.26	5.26
6.53	6.37	6.01	5.51	5.02	4.86	4.97	4.93	4.48	3.97	3.71	3.47	3.20	3.18	3.51	3.95	4.29	4.50	4.70	4.92	5.06	5.27	5.83	6.39	6.35	5.61	4.82	4.61	4.67	4.67	4.71	5.05	5.70	6.46	7.09	7.29	6.93	6.01	4.79	4.06	3.89	4.00	4.28	4.52	4.61	4.71	4.88	5.23	5.91	6.97	7.87	7.99	7.48	6.79	6.14	5.73	5.41	5.01	4.73	4.61	4.51	4.41	4.39	4.59	5.00	5.23	5.16	5.16	5.29	5.47	5.63	5.67	5.64	5.62	5.57	5.53	5.57	5.87	6.37	6.72	6.87	6.89	6.79	6.68	6.59	6.34	5.93	5.56	5.14	4.57	3.99	3.72	3.70	3.74	3.73	3.62	3.54	3.66	4.12	4.71	4.97	4.97	4.97	5.01	5.12	5.39	5.80	5.97	5.87	5.72	5.63	5.59	5.54	5.52	5.65	6.00	6.63	7.15	6.99	6.27	5.50	4.96	4.96	5.13	5.13
6.31	6.32	6.28	6.01	5.47	4.95	4.89	5.10	5.01	4.45	3.98	3.72	3.40	3.15	3.25	3.70	4.15	4.48	4.78	5.09	5.30	5.55	6.06	6.50	6.49	5.85	4.95	4.52	4.51	4.55	4.57	4.72	5.15	5.88	6.67	7.17	7.27	6.88	5.87	4.69	4.08	3.93	4.18	4.54	4.70	4.78	4.91	5.20	5.77	6.69	7.50	7.81	7.62	7.15	6.57	6.08	5.66	5.15	4.78	4.66	4.54	4.56	4.29	4.46	4.96	5.31	5.31	5.33	5.44	5.57	5.74	5.85	5.81	5.63	5.52	5.57	5.68	5.83	6.25	6.86	7.19	7.11	6.71	6.39	6.33	6.23	5.93	5.60	5.27	4.79	4.18	3.69	3.57	3.63	3.67	3.64	3.54	3.58	3.91	4.43	4.75	4.81	4.78	4.81	4.94	5.21	5.50	5.73	5.81	5.79	5.74	5.66	5.55	5.47	5.54	5.91	6.58	7.19	7.14	6.40	5.46	4.82	4.75	4.87	4.87
6.00	6.02	6.10	6.13	5.85	5.21	4.80	4.88	5.05	4.76	4.29	4.01	3.77	3.39	3.18	3.40	3.86	4.28	4.66	5.00	5.23	5.54	6.11	6.56	6.59	6.10	5.18	4.51	4.32	4.34	4.47	4.64	4.87	5.32	6.04	6.66	7.06	7.17	6.75	5.76	4.72	4.12	4.03	4.36	4.60	4.67	4.81	5.09	5.67	6.51	7.15	7.46	7.55	7.39	6.98	6.48	5.97	5.37	4.89	4.75	4.67	4.54	4.40	4.45	4.90	5.31	5.37	5.39	5.53	5.70	5.88	6.09	6.14	5.92	5.60	5.47	5.66	5.95	6.31	6.89	7.52	7.72	7.24	6.60	6.29	6.13	5.88	5.67	5.44	5.00	4.43	3.84	3.55	3.59	3.70	3.74	3.68	3.66	3.88	4.27	4.56	4.64	4.58	4.53	4.58	4.74	5.01	5.32	5.54	5.69	5.76	5.71	5.57	5.39	5.35	5.73	6.49	7.19	7.41	6.96	5.96	5.00	4.69	4.71	4.71
5.88	5.70	5.48	5.58	5.64	5.28	4.76	4.60	4.86	4.88	4.60	4.40	4.24	3.88	3.48	3.39	3.61	3.95	4.30	4.67	5.01	5.41	6.06	6.54	6.63	6.31	5.45	4.56	4.14	4.05	4.17	4.46	4.72	4.98	5.44	5.96	6.38	6.70	6.73	6.26	5.32	4.43	4.00	4.16	4.41	4.49	4.61	4.90	5.54	6.35	6.82	7.03	7.25	7.39	7.23	6.85	6.33	5.64	5.05	4.83	4.78	4.72	4.60	4.56	4.84	5.21	5.32	5.33	5.48	5.73	6.02	6.35	6.52	6.43	6.12	5.79	5.71	5.91	6.22	6.72	7.56	8.22	8.06	7.32	6.74	6.36	6.00	5.83	5.66	5.18	4.63	4.16	3.76	3.72	3.86	3.95	3.94	3.88	3.95	4.22	4.48	4.56	4.51	4.42	4.37	4.41	4.65	5.03	5.36	5.61	5.77	5.79	5.67	5.43	5.21	5.48	6.24	6.96	7.38	7.31	6.59	5.49	4.81	4.68	4.68
6.12	5.71	5.01	4.74	4.78	4.72	4.44	4.31	4.59	4.90	4.90	4.81	4.76	4.53	4.09	3.74	3.60	3.71	3.96	4.31	4.72	5.19	5.92	6.47	6.64	6.50	5.85	4.85	4.11	3.80	3.75	3.97	4.27	4.60	4.97	5.35	5.67	5.95	6.08	5.89	5.38	4.71	4.25	4.20	4.35	4.42	4.48	4.77	5.47	6.21	6.55	6.64	6.86	7.18	7.28	7.10	6.66	5.98	5.33	4.98	4.85	4.81	4.76	4.73	4.86	5.08	5.18	5.25	5.42	5.68	6.03	6.45	6.79	6.92	6.84	6.60	6.28	6.10	6.09	6.34	7.18	8.28	8.71	8.36	7.71	7.10	6.56	6.30	6.10	5.53	4.85	4.44	4.13	3.96	4.01	4.12	4.14	4.08	4.07	4.23	4.45	4.58	4.60	4.61	4.69	4.80	4.90	5.09	5.36	5.60	5.79	5.86	5.78	5.53	5.20	5.33	6.03	6.70	7.09	7.25	6.89	5.91	4.95	4.68	4.68
6.60	6.04	5.02	4.47	4.22	4.09	3.96	3.87	4.10	4.56	4.84	4.86	4.86	4.77	4.48	4.10	3.79	3.74	3.93	4.26	4.59	5.01	5.71	6.30	6.56	6.59	6.25	5.43	4.47	3.84	3.56	3.54	3.72	4.11	4.58	4.91	5.12	5.36	5.48	5.41	5.20	4.87	4.56	4.42	4.45	4.53	4.61	4.91	5.55	6.14	6.36	6.37	6.56	6.94	7.21	7.22	6.94	6.38	5.81	5.38	5.10	4.96	4.88	4.87	5.00	5.09	5.07	5.12	5.32	5.62	5.95	6.31	6.71	6.99	7.11	7.10	6.91	6.59	6.18	6.00	6.62	7.88	8.80	9.02	8.67	8.11	7.57	7.23	6.96	6.36	5.53	4.86	4.47	4.25	4.18	4.21	4.24	4.22	4.20	4.29	4.47	4.63	4.74	4.88	5.11	5.28	5.32	5.37	5.48	5.65	5.80	5.90	5.86	5.63	5.28	5.31	5.96	6.54	6.85	7.09	6.98	6.20	5.10	4.70	4.70
7.13	6.53	5.41	4.69	4.30	4.03	3.83	3.63	3.59	3.87	4.31	4.56	4.61	4.60	4.50	4.27	4.01	3.91	4.06	4.34	4.62	5.02	5.60	6.10	6.39	6.52	6.43	6.00	5.27	4.41	3.82	3.55	3.58	3.86	4.33	4.66	4.79	4.99	5.15	5.16	5.10	4.95	4.75	4.63	4.62	4.68	4.81	5.10	5.66	6.14	6.24	6.19	6.34	6.74	7.11	7.22	7.05	6.63	6.17	5.79	5.43	5.13	4.92	4.88	5.08	5.21	5.08	4.99	5.15	5.49	5.79	5.99	6.24	6.52	6.72	6.92	7.07	6.93	6.33	5.72	5.95	7.06	8.19	8.86	8.91	8.69	8.47	8.28	8.08	7.65	6.85	5.83	5.02	4.62	4.44	4.39	4.38	4.35	4.33	4.38	4.51	4.68	4.83	5.00	5.19	5.36	5.48	5.55	5.60	5.69	5.82	5.91	5.89	5.69	5.36	5.34	5.89	6.38	6.65	6.91	6.97	6.43	5.33	4.81	4.81
7.44	6.96	6.01	5.29	4.87	4.55	4.18	3.81	3.50	3.43	3.72	4.16	4.37	4.41	4.38	4.29	4.15	4.06	4.13	4.36	4.64	5.06	5.59	6.00	6.22	6.34	6.33	6.17	5.84	5.25	4.44	3.89	3.72	3.83	4.19	4.54	4.68	4.80	4.93	5.01	5.04	4.98	4.83	4.72	4.68	4.69	4.77	5.07	5.64	6.07	6.11	5.99	6.08	6.50	6.93	7.05	6.89	6.54	6.10	5.71	5.39	5.12	4.88	4.78	4.96	5.17	5.08	4.89	4.90	5.15	5.39	5.50	5.62	5.81	6.02	6.36	6.82	6.95	6.36	5.46	5.22	5.93	7.08	8.09	8.46	8.30	8.23	8.38	8.51	8.40	7.96	7.11	5.96	5.12	4.74	4.63	4.57	4.50	4.44	4.46	4.54	4.67	4.81	4.95	5.06	5.22	5.42	5.58	5.65	5.71	5.79	5.87	5.84	5.60	5.34	5.40	5.88	6.27	6.49	6.70	6.84	6.54	5.58	5.00	5.00
7.31	7.06	6.47	5.85	5.51	5.31	4.87	4.37	3.91	3.57	3.54	3.81	4.12	4.27	4.30	4.29	4.24	4.19	4.22	4.38	4.64	5.06	5.57	5.96	6.14	6.17	6.10	6.00	5.92	5.68	5.07	4.37	4.01	3.97	4.18	4.50	4.72	4.80	4.84	4.90	4.98	5.00	4.93	4.81	4.72	4.66	4.71	4.99	5.53	5.92	5.93	5.76	5.76	6.19	6.73	6.86	6.64	6.29	5.86	5.43	5.18	5.01	4.80	4.68	4.77	4.96	4.94	4.77	4.67	4.75	4.91	4.99	5.12	5.31	5.52	5.89	6.51	6.85	6.34	5.30	4.77	5.10	6.06	7.28	7.90	7.46	6.98	7.23	7.81	8.18	8.18	7.68	6.72	5.68	5.08	4.84	4.75	4.65	4.53	4.47	4.46	4.48	4.55	4.69	4.80	4.96	5.24	5.46	5.55	5.64	5.74	5.79	5.72	5.46	5.28	5.50	5.96	6.27	6.45	6.60	6.71	6.52	5.76	5.22	5.22
6.93	6.89	6.58	5.94	5.54	5.57	5.57	5.20	4.62	4.07	3.77	3.79	3.99	4.16	4.26	4.33	4.37	4.36	4.36	4.41	4.60	4.97	5.45	5.89	6.09	6.06	5.88	5.73	5.73	5.70	5.36	4.78	4.39	4.28	4.36	4.60	4.84	4.92	4.87	4.87	4.96	5.02	4.99	4.90	4.76	4.67	4.75	5.04	5.47	5.76	5.78	5.62	5.50	5.92	6.57	6.80	6.52	6.07	5.63	5.25	5.00	4.85	4.68	4.55	4.59	4.71	4.70	4.59	4.55	4.64	4.78	4.83	4.96	5.18	5.39	5.73	6.37	6.81	6.45	5.37	4.66	4.76	5.51	6.77	7.69	7.31	6.22	5.88	6.54	7.42	7.83	7.59	6.86	5.99	5.40	5.02	4.88	4.77	4.59	4.42	4.31	4.24	4.20	4.32	4.52	4.70	4.97	5.17	5.32	5.52	5.65	5.69	5.59	5.34	5.23	5.52	5.99	6.26	6.42	6.57	6.67	6.50	5.83	5.35	5.35
6.64	6.68	6.54	5.89	5.16	5.04	5.40	5.49	5.14	4.57	4.14	4.02	4.08	4.17	4.25	4.38	4.49	4.50	4.47	4.44	4.51	4.79	5.26	5.76	6.06	6.03	5.73	5.45	5.45	5.55	5.41	5.00	4.70	4.61	4.64	4.80	5.06	5.14	5.01	4.94	4.95	4.94	4.87	4.77	4.67	4.64	4.81	5.15	5.46	5.65	5.68	5.54	5.44	5.79	6.48	6.86	6.64	6.03	5.45	5.10	4.84	4.64	4.49	4.39	4.41	4.52	4.52	4.42	4.42	4.61	4.91	5.02	5.08	5.25	5.43	5.68	6.23	6.78	6.69	5.76	4.82	4.66	5.22	6.40	7.59	7.72	6.69	5.61	5.61	6.58	7.39	7.40	6.72	6.00	5.51	5.19	5.00	4.88	4.70	4.47	4.28	4.19	4.13	4.18	4.36	4.55	4.77	4.98	5.15	5.39	5.59	5.60	5.44	5.21	5.13	5.43	5.90	6.16	6.32	6.49	6.64	6.53	5.88	5.44	5.44
6.52	6.56	6.53	6.08	5.19	4.55	4.61	4.99	5.09	4.82	4.42	4.22	4.20	4.20	4.20	4.29	4.44	4.51	4.49	4.44	4.46	4.66	5.06	5.58	5.98	6.07	5.78	5.41	5.34	5.47	5.46	5.16	4.88	4.81	4.83	4.97	5.28	5.43	5.26	5.02	4.83	4.70	4.63	4.58	4.53	4.55	4.83	5.25	5.51	5.59	5.56	5.46	5.39	5.70	6.40	6.91	6.91	6.41	5.77	5.32	4.93	4.53	4.32	4.26	4.31	4.41	4.41	4.32	4.27	4.44	4.84	5.12	5.19	5.31	5.47	5.58	5.93	6.56	6.82	6.25	5.19	4.69	4.96	6.00	7.23	7.87	7.54	6.31	5.45	5.81	6.85	7.27	6.75	5.91	5.43	5.22	5.09	4.98	4.84	4.59	4.33	4.20	4.19	4.30	4.48	4.64	4.79	4.96	5.12	5.31	5.52	5.53	5.34	5.13	5.07	5.32	5.74	6.00	6.14	6.30	6.53	6.58	6.06	5.63	5.63
6.48	6.52	6.49	6.17	5.48	4.64	4.21	4.28	4.55	4.61	4.42	4.24	4.18	4.15	4.08	4.08	4.22	4.37	4.41	4.39	4.40	4.53	4.86	5.32	5.77	6.03	5.93	5.59	5.41	5.51	5.59	5.34	5.00	4.89	4.87	4.96	5.27	5.54	5.46	5.09	4.69	4.46	4.45	4.51	4.51	4.50	4.75	5.26	5.56	5.53	5.44	5.34	5.29	5.57	6.25	6.82	7.05	6.88	6.40	5.98	5.47	4.74	4.30	4.19	4.23	4.32	4.34	4.30	4.29	4.40	4.71	5.07	5.25	5.42	5.63	5.69	5.72	6.19	6.73	6.54	5.59	4.79	4.77	5.60	6.68	7.53	7.86	7.18	5.87	5.39	6.19	7.00	6.82	5.91	5.24	5.05	5.04	4.99	4.89	4.67	4.37	4.16	4.16	4.36	4.65	4.83	4.92	5.03	5.16	5.31	5.46	5.48	5.31	5.14	5.15	5.38	5.66	5.86	5.96	6.08	6.30	6.49	6.18	5.87	5.87
6.38	6.58	6.60	6.01	5.26	4.60	4.12	3.92	4.03	4.20	4.20	4.13	4.11	4.09	4.02	3.97	4.07	4.28	4.45	4.47	4.46	4.57	4.86	5.20	5.47	5.77	5.88	5.67	5.39	5.40	5.63	5.51	5.15	4.96	4.85	4.87	5.12	5.46	5.58	5.31	4.77	4.33	4.31	4.48	4.55	4.52	4.68	5.12	5.48	5.48	5.35	5.25	5.24	5.50	6.05	6.56	6.90	6.98	6.80	6.58	6.20	5.35	4.54	4.20	4.17	4.23	4.27	4.30	4.41	4.58	4.81	5.05	5.27	5.50	5.83	5.94	5.76	5.87	6.46	6.68	5.96	4.97	4.69	5.30	6.24	6.98	7.70	7.69	6.62	5.61	5.72	6.63	6.83	6.07	5.22	4.92	4.92	4.94	4.88	4.72	4.49	4.30	4.26	4.40	4.69	4.92	5.02	5.11	5.23	5.37	5.49	5.49	5.33	5.16	5.22	5.48	5.69	5.79	5.82	5.85	6.06	6.36	6.27	6.08	6.08
6.12	6.66	7.05	6.23	5.07	4.44	4.09	3.83	3.79	3.97	4.09	4.08	4.05	4.03	4.01	4.05	4.19	4.46	4.76	4.89	4.87	4.93	5.16	5.30	5.27	5.33	5.55	5.54	5.17	5.02	5.37	5.51	5.26	5.02	4.86	4.84	5.07	5.48	5.76	5.69	5.13	4.42	4.14	4.30	4.47	4.54	4.68	4.99	5.28	5.31	5.20	5.20	5.26	5.45	5.82	6.25	6.58	6.73	6.78	6.79	6.71	6.13	5.12	4.44	4.24	4.22	4.19	4.20	4.32	4.52	4.76	4.98	5.16	5.36	5.74	6.03	5.88	5.67	6.02	6.55	6.30	5.27	4.66	5.14	6.00	6.58	7.29	7.71	7.23	6.24	5.73	6.32	6.83	6.29	5.37	4.93	4.88	4.92	4.92	4.84	4.71	4.61	4.56	4.58	4.72	4.91	5.03	5.12	5.25	5.40	5.51	5.49	5.32	5.15	5.24	5.54	5.73	5.74	5.68	5.66	5.87	6.26	6.40	6.32	6.32
5.76	6.56	7.48	7.07	5.84	4.84	4.30	3.90	3.65	3.73	3.95	4.01	3.99	3.96	4.00	4.16	4.40	4.67	4.98	5.19	5.18	5.15	5.32	5.46	5.25	4.98	5.11	5.25	4.92	4.61	4.85	5.17	5.18	5.03	4.89	4.88	5.12	5.54	5.93	6.05	5.65	4.79	4.11	4.00	4.23	4.49	4.73	4.96	5.14	5.10	5.04	5.15	5.27	5.38	5.59	5.92	6.21	6.40	6.54	6.69	6.83	6.66	5.91	4.95	4.41	4.24	4.10	3.96	3.97	4.16	4.46	4.80	5.02	5.17	5.52	5.93	5.91	5.53	5.51	6.05	6.26	5.49	4.56	4.87	5.78	6.35	6.91	7.43	7.38	6.72	5.98	6.13	6.76	6.56	5.58	4.99	4.88	4.94	4.97	4.93	4.86	4.84	4.83	4.79	4.81	4.92	5.03	5.10	5.18	5.31	5.41	5.39	5.29	5.20	5.30	5.60	5.80	5.73	5.47	5.31	5.49	6.03	6.43	6.50	6.50
5.41	6.26	7.53	7.64	6.68	5.57	4.79	4.23	3.76	3.54	3.64	3.81	3.88	3.89	3.97	4.19	4.45	4.67	4.89	5.13	5.26	5.28	5.40	5.55	5.34	4.94	4.86	4.99	4.82	4.47	4.43	4.71	4.92	4.95	4.91	4.94	5.13	5.49	5.90	6.17	6.04	5.35	4.44	3.91	3.91	4.30	4.78	5.05	5.10	5.01	4.99	5.13	5.25	5.30	5.39	5.56	5.80	6.04	6.27	6.48	6.67	6.75	6.35	5.41	4.57	4.22	4.03	3.81	3.73	3.91	4.26	4.63	4.87	5.04	5.38	5.77	5.83	5.50	5.23	5.48	5.92	5.58	4.58	4.43	5.31	6.06	6.60	7.09	7.25	6.89	6.19	6.04	6.60	6.69	5.84	5.04	4.83	4.88	4.91	4.84	4.76	4.81	4.88	4.88	4.89	4.94	5.01	5.02	5.04	5.13	5.25	5.30	5.29	5.30	5.46	5.74	5.97	5.87	5.42	4.92	4.95	5.65	6.34	6.55	6.55
5.16	5.89	7.24	7.82	7.23	6.06	5.25	4.76	4.36	3.89	3.62	3.63	3.72	3.77	3.87	4.08	4.35	4.61	4.89	5.23	5.58	5.81	5.87	5.78	5.52	5.17	4.97	5.01	4.94	4.66	4.42	4.45	4.64	4.75	4.80	4.88	5.06	5.36	5.71	6.03	6.14	5.80	5.02	4.19	3.81	4.06	4.72	5.13	5.12	5.01	5.05	5.19	5.27	5.26	5.24	5.27	5.39	5.60	5.92	6.23	6.44	6.60	6.49	5.77	4.77	4.21	3.98	3.80	3.70	3.82	4.10	4.44	4.68	4.93	5.28	5.56	5.66	5.52	5.24	5.24	5.63	5.63	4.87	4.37	4.77	5.64	6.27	6.72	6.99	6.84	6.29	6.01	6.46	6.73	6.08	5.16	4.79	4.77	4.80	4.69	4.53	4.55	4.70	4.81	4.88	4.93	4.94	4.93	4.94	5.03	5.16	5.28	5.35	5.43	5.60	5.89	6.15	6.11	5.64	4.91	4.66	5.32	6.18	6.50	6.50
5.00	5.51	6.73	7.73	7.66	6.65	5.69	5.17	4.77	4.28	3.75	3.53	3.58	3.62	3.67	3.84	4.14	4.52	4.96	5.47	5.98	6.40	6.54	6.33	5.92	5.59	5.39	5.33	5.29	5.07	4.69	4.46	4.46	4.50	4.55	4.64	4.83	5.17	5.51	5.81	6.04	6.01	5.57	4.78	4.08	3.98	4.54	5.09	5.11	4.98	5.08	5.30	5.38	5.34	5.22	5.11	5.11	5.23	5.53	5.95	6.24	6.45	6.52	6.06	5.06	4.27	3.92	3.77	3.67	3.68	3.82	4.18	4.56	4.94	5.24	5.34	5.40	5.43	5.28	5.18	5.46	5.62	5.11	4.50	4.57	5.27	5.92	6.37	6.62	6.64	6.30	6.00	6.29	6.64	6.22	5.32	4.83	4.73	4.76	4.67	4.44	4.34	4.47	4.65	4.82	4.94	4.95	4.92	4.92	4.99	5.11	5.27	5.40	5.51	5.70	6.00	6.28	6.30	5.90	5.08	4.56	5.04	5.98	6.38	6.38
4.94	5.28	6.23	7.38	7.80	7.38	6.39	5.34	4.65	4.23	3.80	3.48	3.46	3.51	3.50	3.60	3.89	4.28	4.72	5.20	5.75	6.36	6.81	6.83	6.45	6.03	5.80	5.67	5.59	5.42	5.03	4.63	4.44	4.36	4.36	4.45	4.67	5.02	5.37	5.64	5.90	6.05	5.90	5.35	4.57	4.15	4.44	4.96	4.99	4.88	5.04	5.33	5.48	5.48	5.31	5.08	4.95	5.00	5.27	5.69	6.05	6.32	6.51	6.33	5.54	4.57	3.97	3.72	3.61	3.54	3.60	3.94	4.51	5.10	5.38	5.29	5.17	5.23	5.21	5.10	5.29	5.57	5.23	4.66	4.62	5.10	5.63	6.05	6.26	6.32	6.19	6.02	6.17	6.49	6.25	5.43	4.93	4.80	4.81	4.77	4.54	4.32	4.33	4.51	4.75	4.95	5.02	4.97	4.91	4.92	5.05	5.26	5.42	5.55	5.77	6.09	6.38	6.47	6.11	5.23	4.57	4.84	5.73	6.20	6.20
5.14	5.31	5.98	6.97	7.64	7.90	7.50	6.40	5.38	4.78	4.30	3.77	3.51	3.51	3.49	3.49	3.65	3.90	4.15	4.45	4.94	5.71	6.51	6.83	6.61	6.23	5.96	5.81	5.70	5.54	5.19	4.78	4.52	4.37	4.35	4.49	4.76	5.03	5.24	5.46	5.73	5.96	5.98	5.66	4.95	4.37	4.42	4.77	4.80	4.73	4.93	5.24	5.46	5.56	5.46	5.15	4.85	4.83	5.11	5.50	5.85	6.17	6.48	6.59	6.19	5.26	4.24	3.76	3.60	3.54	3.61	3.83	4.36	5.18	5.59	5.46	5.16	5.08	5.06	4.97	5.10	5.43	5.27	4.79	4.74	5.10	5.46	5.77	5.97	5.98	5.92	5.95	6.14	6.41	6.28	5.61	5.08	4.91	4.87	4.84	4.69	4.45	4.38	4.52	4.75	4.96	5.05	4.99	4.85	4.77	4.89	5.15	5.37	5.51	5.75	6.11	6.47	6.68	6.52	5.75	4.84	4.74	5.48	5.97	5.97
5.22	5.43	5.95	6.62	7.33	7.91	8.12	7.82	7.14	6.39	5.53	4.54	3.82	3.59	3.53	3.46	3.45	3.55	3.72	3.95	4.44	5.27	6.08	6.49	6.41	6.13	5.90	5.78	5.72	5.56	5.19	4.81	4.59	4.43	4.36	4.49	4.82	5.11	5.16	5.19	5.44	5.73	5.86	5.69	5.14	4.55	4.47	4.68	4.72	4.66	4.81	5.08	5.33	5.51	5.54	5.29	4.82	4.62	4.93	5.34	5.66	5.96	6.31	6.64	6.65	5.96	4.70	3.93	3.68	3.63	3.71	3.81	4.10	4.93	5.56	5.56	5.25	5.03	4.88	4.84	4.96	5.25	5.17	4.79	4.82	5.14	5.37	5.56	5.74	5.76	5.73	5.85	6.10	6.36	6.33	5.80	5.25	5.00	4.89	4.84	4.77	4.59	4.50	4.60	4.78	4.97	5.05	4.98	4.78	4.58	4.60	4.89	5.20	5.36	5.58	5.97	6.39	6.71	6.80	6.36	5.41	4.90	5.28	5.69	5.69
4.95	5.28	5.84	6.38	6.92	7.40	7.84	8.10	8.02	7.60	6.84	5.53	4.27	3.70	3.57	3.48	3.38	3.41	3.58	3.83	4.31	5.15	5.87	6.21	6.16	5.95	5.75	5.67	5.70	5.63	5.26	4.82	4.60	4.46	4.31	4.32	4.67	5.12	5.21	5.10	5.19	5.46	5.66	5.60	5.19	4.74	4.67	4.86	4.91	4.80	4.80	4.95	5.17	5.38	5.51	5.40	4.90	4.50	4.71	5.18	5.49	5.70	5.99	6.41	6.75	6.47	5.33	4.30	3.89	3.78	3.83	3.91	4.08	4.68	5.33	5.41	5.19	5.00	4.78	4.73	4.92	5.17	5.08	4.74	4.80	5.18	5.38	5.44	5.53	5.58	5.62	5.79	6.02	6.28	6.36	5.98	5.43	5.09	4.90	4.81	4.76	4.64	4.54	4.59	4.75	4.93	5.02	4.97	4.75	4.48	4.38	4.58	4.94	5.19	5.38	5.71	6.13	6.50	6.73	6.60	5.93	5.27	5.26	5.45	5.45
4.52	4.78	5.41	6.00	6.44	6.76	7.06	7.37	7.66	7.84	7.65	6.64	5.01	3.96	3.64	3.56	3.45	3.43	3.55	3.75	4.13	4.93	5.73	6.07	6.01	5.80	5.64	5.58	5.65	5.70	5.45	4.93	4.61	4.46	4.29	4.19	4.42	4.95	5.21	5.14	5.16	5.37	5.54	5.46	5.13	4.82	4.80	5.04	5.18	5.06	4.90	4.89	5.03	5.22	5.39	5.40	4.99	4.51	4.57	5.00	5.30	5.44	5.62	6.03	6.60	6.72	6.00	4.91	4.26	3.99	3.98	4.10	4.28	4.71	5.18	5.25	5.04	4.86	4.67	4.64	4.88	5.13	5.07	4.76	4.78	5.19	5.41	5.43	5.41	5.36	5.43	5.64	5.83	6.06	6.23	6.05	5.58	5.20	4.96	4.83	4.74	4.60	4.49	4.53	4.68	4.84	4.94	4.91	4.75	4.53	4.36	4.39	4.68	5.02	5.23	5.46	5.83	6.22	6.53	6.56	6.13	5.59	5.41	5.42	5.42
4.37	4.50	4.94	5.50	5.91	6.13	6.28	6.49	6.82	7.32	7.75	7.54	6.25	4.67	3.87	3.70	3.64	3.56	3.58	3.70	4.00	4.65	5.47	5.94	5.93	5.73	5.57	5.50	5.53	5.63	5.58	5.16	4.70	4.49	4.33	4.18	4.27	4.69	5.02	5.07	5.17	5.43	5.59	5.43	5.04	4.75	4.71	4.95	5.23	5.24	5.04	4.91	4.94	5.04	5.18	5.28	5.02	4.55	4.50	4.82	5.08	5.19	5.27	5.57	6.18	6.61	6.28	5.41	4.65	4.22	4.11	4.23	4.47	4.83	5.19	5.23	5.01	4.74	4.48	4.45	4.73	5.07	5.10	4.82	4.78	5.16	5.40	5.41	5.35	5.23	5.26	5.43	5.54	5.65	5.80	5.80	5.58	5.29	5.06	4.90	4.79	4.63	4.47	4.48	4.62	4.77	4.86	4.84	4.75	4.66	4.50	4.34	4.44	4.81	5.10	5.29	5.58	5.97	6.36	6.49	6.16	5.73	5.52	5.49	5.49
4.52	4.61	4.88	5.33	5.72	5.76	5.67	5.79	6.10	6.55	7.18	7.63	7.26	5.90	4.49	3.96	3.86	3.78	3.72	3.78	4.02	4.51	5.21	5.73	5.82	5.65	5.49	5.41	5.39	5.45	5.53	5.33	4.89	4.59	4.41	4.25	4.26	4.53	4.80	4.91	5.10	5.45	5.68	5.50	5.02	4.67	4.60	4.82	5.18	5.33	5.19	5.03	4.97	4.95	4.93	4.99	4.85	4.44	4.37	4.65	4.85	4.95	5.01	5.17	5.63	6.17	6.13	5.51	4.85	4.40	4.20	4.30	4.62	4.96	5.24	5.31	5.13	4.82	4.41	4.22	4.47	4.92	5.10	4.85	4.71	5.02	5.32	5.35	5.26	5.13	5.17	5.37	5.44	5.38	5.41	5.49	5.47	5.33	5.14	4.99	4.90	4.78	4.58	4.48	4.57	4.74	4.85	4.83	4.78	4.78	4.72	4.47	4.31	4.54	4.90	5.14	5.38	5.74	6.16	6.40	6.21	5.81	5.59	5.55	5.55
4.69	4.81	5.01	5.44	5.92	5.93	5.47	5.24	5.52	5.96	6.42	7.02	7.36	6.86	5.57	4.52	4.14	3.98	3.87	3.90	4.15	4.61	5.17	5.57	5.68	5.55	5.37	5.28	5.26	5.26	5.33	5.32	5.03	4.71	4.50	4.35	4.32	4.47	4.65	4.77	5.00	5.40	5.70	5.54	5.01	4.58	4.52	4.78	5.15	5.34	5.29	5.18	5.12	5.05	4.89	4.76	4.55	4.19	4.16	4.48	4.68	4.79	4.86	4.96	5.26	5.67	5.75	5.43	4.95	4.53	4.27	4.32	4.70	5.07	5.29	5.37	5.30	5.05	4.62	4.19	4.17	4.60	4.96	4.86	4.66	4.84	5.17	5.29	5.19	5.02	5.07	5.40	5.60	5.49	5.35	5.34	5.34	5.28	5.15	5.01	4.93	4.89	4.77	4.63	4.61	4.76	4.90	4.90	4.85	4.87	4.89	4.68	4.38	4.32	4.58	4.89	5.16	5.50	5.90	6.19	6.14	5.84	5.65	5.61	5.61
4.79	4.96	5.16	5.47	6.05	6.28	5.85	5.24	5.13	5.54	5.97	6.34	6.78	6.90	6.37	5.34	4.57	4.19	4.01	3.98	4.21	4.73	5.28	5.57	5.62	5.51	5.30	5.12	5.06	5.05	5.08	5.14	5.04	4.80	4.59	4.45	4.42	4.46	4.52	4.63	4.88	5.32	5.70	5.58	4.99	4.44	4.33	4.64	5.04	5.24	5.24	5.25	5.30	5.26	5.13	4.96	4.64	4.14	3.96	4.24	4.53	4.71	4.79	4.88	5.09	5.31	5.30	5.11	4.86	4.57	4.36	4.37	4.70	5.09	5.29	5.37	5.38	5.26	4.95	4.44	4.07	4.22	4.64	4.77	4.68	4.76	5.02	5.21	5.19	5.00	4.95	5.27	5.65	5.68	5.45	5.29	5.24	5.18	5.11	4.99	4.87	4.85	4.88	4.81	4.73	4.78	4.90	4.94	4.92	4.95	4.98	4.86	4.57	4.32	4.30	4.51	4.84	5.21	5.61	5.90	5.92	5.75	5.65	5.66	5.66
4.64	4.86	5.12	5.33	5.84	6.30	6.19	5.61	5.08	5.14	5.59	5.95	6.17	6.26	6.13	5.67	5.00	4.48	4.16	3.99	4.08	4.60	5.27	5.61	5.63	5.55	5.37	5.09	4.88	4.80	4.81	4.89	4.92	4.82	4.66	4.55	4.52	4.49	4.42	4.45	4.69	5.17	5.65	5.68	5.08	4.38	4.13	4.39	4.82	5.03	5.06	5.17	5.35	5.39	5.34	5.27	5.04	4.47	3.96	4.03	4.43	4.73	4.83	4.91	5.07	5.14	4.95	4.73	4.61	4.49	4.41	4.46	4.70	5.04	5.23	5.30	5.34	5.30	5.15	4.77	4.30	4.13	4.36	4.59	4.67	4.76	4.93	5.12	5.20	5.07	4.91	5.04	5.41	5.61	5.52	5.33	5.22	5.17	5.12	5.04	4.91	4.84	4.88	4.89	4.80	4.74	4.79	4.87	4.92	4.98	5.03	4.98	4.81	4.54	4.30	4.27	4.51	4.88	5.29	5.62	5.70	5.64	5.64	5.68	5.68
4.37	4.55	4.88	5.14	5.58	6.05	6.19	5.93	5.36	4.95	5.15	5.68	5.97	5.83	5.55	5.40	5.14	4.73	4.33	4.03	3.96	4.33	5.06	5.52	5.60	5.58	5.54	5.34	5.01	4.75	4.65	4.67	4.73	4.74	4.65	4.59	4.58	4.53	4.40	4.30	4.43	4.88	5.46	5.70	5.25	4.52	4.15	4.29	4.67	4.89	4.92	5.02	5.23	5.33	5.32	5.32	5.26	4.87	4.22	4.01	4.36	4.77	4.93	5.00	5.14	5.17	4.91	4.60	4.49	4.46	4.47	4.57	4.75	4.99	5.15	5.21	5.24	5.26	5.21	5.00	4.66	4.41	4.38	4.51	4.64	4.77	4.89	5.03	5.15	5.11	4.93	4.88	5.09	5.34	5.41	5.35	5.29	5.26	5.24	5.17	5.03	4.90	4.88	4.88	4.82	4.71	4.66	4.73	4.86	4.97	5.06	5.09	5.02	4.84	4.55	4.36	4.42	4.68	5.05	5.38	5.55	5.59	5.67	5.72	5.72
4.37	4.50	4.75	5.00	5.35	5.73	5.95	5.96	5.68	5.18	5.03	5.46	5.94	5.89	5.44	5.17	5.09	4.85	4.49	4.17	4.00	4.19	4.78	5.26	5.40	5.45	5.54	5.57	5.39	5.06	4.78	4.64	4.64	4.67	4.65	4.62	4.62	4.58	4.45	4.28	4.25	4.54	5.12	5.55	5.33	4.72	4.34	4.38	4.66	4.86	4.89	4.94	5.08	5.20	5.22	5.23	5.28	5.13	4.54	4.07	4.23	4.72	4.97	5.05	5.18	5.27	5.06	4.70	4.52	4.48	4.52	4.68	4.83	4.96	5.08	5.13	5.16	5.21	5.24	5.15	4.98	4.79	4.65	4.61	4.65	4.73	4.81	4.90	5.02	5.07	4.98	4.89	4.94	5.13	5.27	5.30	5.30	5.32	5.32	5.28	5.15	5.00	4.92	4.88	4.84	4.75	4.65	4.67	4.79	4.92	5.04	5.13	5.16	5.08	4.84	4.60	4.55	4.69	4.93	5.21	5.40	5.52	5.66	5.74	5.74
4.37	4.49	4.67	4.79	5.02	5.30	5.52	5.67	5.62	5.31	5.10	5.36	5.77	5.91	5.66	5.32	5.16	4.99	4.68	4.36	4.13	4.19	4.61	4.99	5.13	5.21	5.36	5.52	5.58	5.47	5.20	4.91	4.77	4.76	4.74	4.72	4.70	4.63	4.51	4.34	4.20	4.28	4.74	5.25	5.24	4.84	4.52	4.47	4.62	4.77	4.83	4.85	4.93	5.03	5.10	5.10	5.17	5.21	4.85	4.28	4.18	4.57	4.86	4.98	5.11	5.25	5.18	4.85	4.57	4.42	4.41	4.57	4.77	4.89	4.96	5.02	5.07	5.13	5.19	5.17	5.11	4.99	4.84	4.73	4.70	4.72	4.75	4.77	4.85	4.98	5.03	4.99	4.98	5.07	5.19	5.22	5.22	5.25	5.30	5.31	5.23	5.10	5.00	4.93	4.87	4.78	4.69	4.66	4.71	4.79	4.89	5.03	5.15	5.20	5.06	4.83	4.74	4.81	4.92	5.06	5.21	5.35	5.55	5.68	5.68
4.11	4.07	4.18	4.29	4.45	4.64	4.89	5.14	5.26	5.15	5.04	5.18	5.49	5.73	5.74	5.56	5.38	5.19	4.90	4.56	4.25	4.19	4.47	4.75	4.90	5.01	5.16	5.34	5.51	5.63	5.62	5.46	5.25	5.11	5.01	4.92	4.83	4.72	4.60	4.44	4.27	4.16	4.36	4.79	4.97	4.83	4.59	4.44	4.45	4.55	4.63	4.69	4.75	4.84	4.94	4.98	5.00	5.08	4.98	4.56	4.30	4.43	4.63	4.77	4.91	5.09	5.15	4.99	4.69	4.40	4.24	4.27	4.45	4.63	4.75	4.84	4.94	5.03	5.11	5.13	5.11	5.03	4.89	4.78	4.72	4.73	4.76	4.77	4.80	4.90	5.01	5.05	5.05	5.07	5.13	5.16	5.14	5.15	5.18	5.21	5.19	5.12	5.04	4.97	4.89	4.76	4.63	4.59	4.60	4.62	4.66	4.76	4.92	5.09	5.15	5.06	4.96	4.91	4.88	4.89	4.95	5.08	5.31	5.46	5.46
4.03	3.86	3.83	3.98	4.12	4.28	4.51	4.82	5.06	5.04	4.95	5.05	5.32	5.61	5.74	5.66	5.50	5.30	5.01	4.66	4.31	4.18	4.38	4.63	4.80	4.93	5.08	5.25	5.44	5.63	5.79	5.79	5.61	5.38	5.19	5.04	4.91	4.80	4.67	4.50	4.32	4.14	4.19	4.51	4.79	4.79	4.60	4.42	4.37	4.43	4.51	4.58	4.65	4.73	4.85	4.93	4.92	4.96	4.95	4.68	4.39	4.37	4.50	4.64	4.79	4.97	5.10	5.04	4.78	4.43	4.19	4.13	4.23	4.43	4.60	4.73	4.86	4.98	5.08	5.13	5.11	5.04	4.91	4.79	4.72	4.72	4.78	4.82	4.82	4.87	4.98	5.06	5.07	5.06	5.10	5.13	5.13	5.10	5.10	5.13	5.14	5.11	5.04	4.98	4.92	4.77	4.59	4.53	4.54	4.54	4.54	4.59	4.74	4.96	5.15	5.18	5.08	4.94	4.84	4.78	4.80	4.91	5.15	5.31	5.31
