ncols	125
nrows	152
xllcorner	-2042055
yllcorner	1465485
cellsize	30.000000
NODATA_value	-9999.000000
3.33	3.22	3.35	3.81	4.25	4.63	5.04	5.48	5.77	6.02	6.32	6.68	6.63	6.17	6.04	6.27	6.49	6.45	5.95	5.22	4.65	4.69	5.19	5.66	5.93	5.94	5.66	4.89	3.93	3.01	2.28	1.84	1.73	1.85	1.95	1.98	2.07	2.22	2.37	2.44	2.46	2.50	2.58	2.68	2.68	2.61	2.49	2.50	2.78	3.44	4.23	4.93	5.48	5.98	6.14	6.12	5.88	5.30	4.82	4.55	4.42	4.36	4.32	4.40	4.50	4.53	4.43	4.16	3.73	3.47	3.44	3.59	3.82	4.03	4.17	4.26	4.33	4.42	4.69	5.06	5.24	5.00	4.58	4.70	5.16	5.60	5.72	5.39	4.62	3.86	3.34	2.94	2.59	2.43	2.55	3.11	4.06	4.85	5.11	4.94	4.67	4.33	4.10	4.07	3.82	3.34	3.03	3.01	3.02	2.98	2.81	2.47	2.13	1.96	2.00	2.22	2.61	2.97	3.36	3.79	4.07	4.18	4.00	3.77	3.77
3.33	3.22	3.35	3.81	4.25	4.63	5.04	5.48	5.77	6.02	6.32	6.68	6.63	6.17	6.04	6.27	6.49	6.45	5.95	5.22	4.65	4.69	5.19	5.66	5.93	5.94	5.66	4.89	3.93	3.01	2.28	1.84	1.73	1.85	1.95	1.98	2.07	2.22	2.37	2.44	2.46	2.50	2.58	2.68	2.68	2.61	2.49	2.50	2.78	3.44	4.23	4.93	5.48	5.98	6.14	6.12	5.88	5.30	4.82	4.55	4.42	4.36	4.32	4.40	4.50	4.53	4.43	4.16	3.73	3.47	3.44	3.59	3.82	4.03	4.17	4.26	4.33	4.42	4.69	5.06	5.24	5.00	4.58	4.70	5.16	5.60	5.72	5.39	4.62	3.86	3.34	2.94	2.59	2.43	2.55	3.11	4.06	4.85	5.11	4.94	4.67	4.33	4.10	4.07	3.82	3.34	3.03	3.01	3.02	2.98	2.81	2.47	2.13	1.96	2.00	2.22	2.61	2.97	3.36	3.79	4.07	4.18	4.00	3.77	3.77
3.12	3.12	3.38	3.87	4.26	4.62	4.97	5.30	5.52	5.64	5.80	6.03	6.02	5.84	5.75	5.86	5.98	5.96	5.60	5.00	4.66	4.83	5.24	5.46	5.47	5.30	4.78	4.03	3.29	2.54	1.93	1.66	1.69	1.89	2.03	2.08	2.19	2.33	2.40	2.41	2.40	2.44	2.53	2.68	2.82	2.84	2.82	2.87	3.19	3.80	4.43	4.87	5.20	5.49	5.62	5.59	5.45	5.16	4.79	4.42	4.19	4.05	4.08	4.21	4.29	4.28	4.21	4.09	3.96	3.80	3.75	3.80	3.87	3.93	3.98	4.03	4.12	4.30	4.58	4.76	4.67	4.52	4.50	4.82	5.19	5.39	5.30	4.86	4.27	3.77	3.41	3.09	2.84	2.80	3.06	3.67	4.51	4.79	4.56	4.31	4.12	3.83	3.72	3.61	3.22	2.85	2.73	2.76	2.66	2.58	2.35	2.07	1.94	1.99	2.24	2.59	2.83	3.07	3.44	3.86	4.03	3.91	3.64	3.46	3.46
3.02	3.15	3.60	4.01	4.30	4.54	4.80	4.92	4.90	4.86	4.88	4.88	4.85	4.86	4.98	4.99	4.95	4.95	4.79	4.57	4.64	5.03	5.21	4.96	4.52	4.01	3.39	2.88	2.42	1.94	1.59	1.58	1.85	2.15	2.30	2.34	2.43	2.55	2.54	2.46	2.52	2.67	2.81	3.00	3.23	3.34	3.44	3.58	3.89	4.36	4.70	4.74	4.66	4.60	4.55	4.40	4.34	4.39	4.35	4.19	3.99	3.85	3.82	3.87	3.82	3.75	3.73	3.81	3.95	4.07	4.10	4.02	3.87	3.74	3.68	3.70	3.81	4.02	4.23	4.17	3.88	3.95	4.42	4.96	5.08	4.84	4.46	3.99	3.69	3.56	3.45	3.31	3.29	3.57	4.16	4.83	4.93	4.41	3.59	3.21	3.04	2.87	2.81	2.53	2.09	1.91	2.06	2.16	2.06	2.00	1.90	1.80	1.95	2.34	2.88	3.24	3.43	3.64	3.99	4.28	4.23	3.85	3.52	3.41	3.41
3.18	3.39	3.89	4.13	4.25	4.42	4.53	4.56	4.44	4.34	4.27	4.13	3.96	3.93	4.16	4.24	4.12	4.04	4.12	4.30	4.64	4.98	4.89	4.29	3.56	2.99	2.66	2.42	2.16	1.92	1.83	2.05	2.42	2.68	2.74	2.68	2.69	2.80	2.82	2.79	2.97	3.17	3.34	3.55	3.67	3.74	3.79	3.98	4.32	4.66	4.77	4.61	4.32	3.99	3.64	3.22	3.00	3.07	3.37	3.66	3.77	3.77	3.72	3.57	3.44	3.32	3.23	3.28	3.44	3.57	3.62	3.59	3.51	3.45	3.44	3.48	3.59	3.75	3.86	3.81	3.69	3.89	4.41	4.82	4.63	4.06	3.68	3.39	3.28	3.32	3.34	3.35	3.62	4.28	4.97	5.06	4.40	3.40	2.76	2.41	2.15	1.92	1.79	1.61	1.42	1.45	1.70	1.86	1.88	1.97	2.03	2.12	2.44	2.96	3.47	3.96	4.47	4.95	5.20	5.04	4.62	4.19	3.81	3.62	3.62
3.31	3.53	4.00	4.19	4.19	4.27	4.33	4.20	4.11	4.06	3.93	3.70	3.47	3.47	3.81	3.99	3.85	3.67	3.81	4.15	4.53	4.65	4.30	3.50	2.77	2.46	2.36	2.28	2.23	2.21	2.37	2.70	3.00	3.08	2.99	2.90	2.93	3.03	3.11	3.19	3.32	3.42	3.51	3.71	3.84	3.84	3.86	4.08	4.41	4.69	4.74	4.53	4.17	3.59	2.97	2.50	2.36	2.49	2.73	2.97	3.20	3.34	3.34	3.20	3.06	2.93	2.85	2.85	2.87	2.87	2.87	2.90	2.96	3.03	3.09	3.18	3.34	3.52	3.63	3.67	3.73	3.95	4.29	4.41	3.98	3.35	3.05	2.94	3.01	3.19	3.30	3.50	4.09	4.78	4.86	4.14	3.10	2.39	1.96	1.62	1.34	1.19	1.21	1.31	1.42	1.62	1.86	2.07	2.22	2.38	2.49	2.60	2.96	3.55	4.22	5.01	5.72	6.04	5.85	5.22	4.51	4.03	3.65	3.46	3.46
3.52	3.74	4.09	4.23	4.19	4.15	4.03	3.78	3.68	3.72	3.70	3.50	3.25	3.38	3.87	4.05	3.90	3.67	3.61	3.74	4.04	4.11	3.66	2.90	2.44	2.30	2.23	2.20	2.28	2.50	2.82	3.15	3.32	3.30	3.19	3.18	3.27	3.34	3.34	3.34	3.37	3.42	3.49	3.59	3.66	3.55	3.52	3.77	4.25	4.61	4.71	4.50	4.02	3.50	3.05	2.76	2.78	2.88	2.89	2.84	2.81	2.84	2.81	2.71	2.57	2.46	2.48	2.57	2.62	2.62	2.59	2.56	2.57	2.61	2.69	2.85	3.06	3.28	3.43	3.58	3.75	3.89	4.01	3.91	3.44	2.95	2.74	2.75	2.93	3.19	3.39	3.79	4.41	4.55	3.86	2.80	2.05	1.58	1.21	0.96	0.88	0.99	1.25	1.56	1.85	2.07	2.31	2.57	2.72	2.87	3.08	3.19	3.44	4.07	5.03	5.98	6.38	6.11	5.32	4.39	3.86	3.52	3.25	3.14	3.14
3.73	3.96	4.27	4.27	4.18	3.94	3.62	3.34	3.37	3.54	3.58	3.42	3.26	3.49	3.94	4.01	3.75	3.44	3.19	3.14	3.42	3.54	3.16	2.64	2.37	2.25	2.18	2.17	2.34	2.69	3.07	3.40	3.59	3.69	3.78	3.94	4.01	3.93	3.77	3.58	3.43	3.39	3.46	3.47	3.29	3.10	3.08	3.42	4.12	4.74	4.82	4.51	4.07	3.81	3.67	3.60	3.49	3.35	3.10	2.81	2.59	2.47	2.37	2.23	2.08	2.09	2.31	2.55	2.66	2.61	2.47	2.33	2.28	2.35	2.51	2.72	2.95	3.22	3.44	3.60	3.66	3.62	3.58	3.44	3.13	2.80	2.65	2.76	3.01	3.31	3.60	4.03	4.18	3.64	2.50	1.69	1.26	1.01	0.83	0.79	1.00	1.40	1.81	2.16	2.44	2.59	2.88	3.33	3.55	3.67	3.82	3.90	4.05	4.68	5.83	6.52	6.30	5.34	4.20	3.62	3.49	3.43	3.29	3.20	3.20
4.07	4.20	4.40	4.28	4.06	3.73	3.34	3.20	3.42	3.59	3.58	3.44	3.37	3.60	3.84	3.75	3.39	2.98	2.69	2.70	3.05	3.16	2.77	2.39	2.22	2.15	2.22	2.38	2.61	2.89	3.29	3.70	4.09	4.51	4.85	4.99	4.91	4.70	4.45	4.15	3.82	3.58	3.51	3.43	3.20	3.01	3.16	3.70	4.54	5.03	4.91	4.33	3.81	3.61	3.57	3.51	3.36	3.09	2.74	2.43	2.22	2.09	2.02	1.94	1.90	2.10	2.54	2.86	2.87	2.63	2.31	2.13	2.21	2.47	2.76	3.00	3.25	3.56	3.77	3.76	3.59	3.37	3.28	2.93	3.04	2.84	2.71	2.82	3.15	3.50	3.78	3.86	3.43	2.42	1.51	1.08	0.90	0.90	1.00	1.24	1.62	2.07	2.55	2.91	3.28	3.54	3.99	4.66	5.02	5.06	4.96	4.91	5.01	5.50	6.48	6.55	5.53	4.26	3.51	3.48	3.68	3.70	3.55	3.43	3.43
4.29	4.36	4.36	4.19	3.93	3.65	3.34	3.43	3.78	3.96	3.84	3.67	3.62	3.68	3.65	3.45	3.05	2.62	2.43	2.58	2.95	2.91	2.45	2.14	2.04	2.06	2.25	2.56	2.89	3.24	3.73	4.26	4.83	5.27	5.41	5.30	5.09	4.92	4.79	4.61	4.37	4.10	3.88	3.71	3.47	3.42	3.65	4.31	5.03	5.18	4.73	3.81	3.06	2.54	2.46	2.56	2.54	2.35	2.12	1.92	1.76	1.73	1.85	1.98	2.17	2.53	3.03	3.25	3.03	2.59	2.26	2.24	2.60	3.09	3.45	3.69	3.94	4.21	4.30	4.10	3.79	3.59	3.50	3.42	3.26	3.07	2.91	3.01	3.34	3.60	3.52	3.07	2.30	1.65	1.33	1.30	1.37	1.47	1.63	1.94	2.36	2.82	3.30	3.85	4.44	5.08	5.77	6.21	6.11	5.88	5.74	5.72	5.88	6.22	6.43	5.95	4.52	3.46	3.24	3.53	3.74	3.63	3.48	3.47	3.47
4.62	4.43	4.21	4.09	3.96	3.83	3.85	4.19	4.50	4.51	4.33	4.12	3.94	3.73	3.46	3.16	2.84	2.57	2.55	2.80	3.03	2.81	2.35	2.06	1.96	2.03	2.23	2.60	3.13	3.78	4.41	4.94	5.31	5.32	4.95	4.52	4.40	4.52	4.63	4.64	4.58	4.43	4.21	3.99	3.84	3.78	3.97	4.68	5.22	5.05	4.23	3.24	2.46	1.97	1.82	1.82	1.82	1.75	1.62	1.50	1.49	1.70	2.07	2.40	2.71	3.18	3.53	3.48	3.12	2.64	2.46	2.75	3.36	3.88	4.22	4.46	4.68	4.78	4.65	4.36	4.16	4.07	3.97	3.83	3.61	3.32	3.15	3.24	3.44	3.31	2.78	2.24	1.90	1.82	1.96	2.15	2.33	2.51	2.65	2.81	3.25	3.81	4.34	5.10	5.90	6.46	6.67	6.53	6.00	5.58	5.53	5.64	5.85	6.07	5.96	5.29	4.22	3.40	3.17	3.28	3.27	3.12	3.21	3.42	3.42
4.91	4.51	4.11	4.15	4.29	4.47	4.79	5.13	5.26	5.04	4.74	4.48	4.21	3.78	3.31	3.03	2.84	2.76	2.89	3.11	3.12	2.78	2.33	2.04	1.98	2.13	2.45	2.98	3.67	4.35	4.80	5.06	5.02	4.57	3.84	3.45	3.62	3.94	4.09	4.15	4.21	4.26	4.24	4.17	4.06	4.01	4.24	4.89	5.14	4.66	3.64	2.88	2.34	1.93	1.67	1.53	1.46	1.41	1.34	1.36	1.63	2.11	2.63	3.03	3.36	3.67	3.79	3.58	3.27	3.03	2.94	3.36	3.99	4.47	4.73	4.85	4.82	4.60	4.18	3.86	3.76	3.76	3.75	3.72	3.61	3.36	3.27	3.31	3.22	2.83	2.46	2.33	2.38	2.54	2.79	3.04	3.30	3.59	3.93	4.19	4.60	5.17	5.82	6.50	6.85	6.78	6.31	5.60	4.93	4.74	4.79	4.85	4.98	5.33	5.45	4.95	4.27	3.75	3.30	3.05	2.87	2.77	2.95	3.24	3.24
4.83	4.51	4.12	4.20	4.50	4.87	5.22	5.39	5.36	5.14	4.89	4.66	4.36	3.83	3.34	3.11	3.00	2.96	3.05	3.13	3.00	2.60	2.21	2.03	2.10	2.41	2.91	3.51	3.99	4.28	4.36	4.23	3.86	3.26	2.79	2.86	3.25	3.42	3.31	3.34	3.50	3.71	3.94	4.09	4.12	4.16	4.43	4.92	4.84	4.04	3.10	2.51	1.99	1.57	1.33	1.27	1.29	1.30	1.39	1.65	2.13	2.72	3.22	3.54	3.72	3.83	3.81	3.66	3.53	3.45	3.50	3.94	4.55	4.85	4.82	4.55	4.09	3.49	2.99	2.79	2.84	2.98	3.12	3.19	3.12	3.08	3.18	3.20	3.04	2.88	2.92	3.06	3.19	3.34	3.62	3.95	4.30	4.74	5.21	5.55	5.93	6.47	6.88	6.94	6.63	5.95	5.24	4.73	4.33	4.09	4.06	4.07	4.33	4.97	5.17	4.57	4.02	3.77	3.46	3.06	2.82	2.66	2.87	3.07	3.07
4.68	4.56	4.32	4.18	4.28	4.54	4.74	4.76	4.62	4.55	4.55	4.50	4.32	3.95	3.57	3.32	3.16	3.04	2.97	2.88	2.65	2.29	2.08	2.07	2.27	2.63	3.05	3.35	3.43	3.36	3.19	2.86	2.52	2.25	2.23	2.58	2.85	2.77	2.59	2.63	2.78	3.03	3.32	3.52	3.74	4.05	4.43	4.69	4.43	3.58	2.72	1.99	1.41	1.13	1.12	1.30	1.43	1.52	1.76	2.20	2.76	3.31	3.67	3.85	3.93	3.98	3.98	3.90	3.81	3.76	3.94	4.47	4.89	4.76	4.19	3.45	2.82	2.40	2.20	2.30	2.62	2.94	3.09	3.00	2.91	3.07	3.27	3.28	3.26	3.35	3.50	3.65	3.82	4.04	4.39	4.76	5.12	5.42	5.62	5.79	6.14	6.61	6.67	6.11	5.48	4.90	4.44	4.19	3.85	3.53	3.47	3.76	4.44	5.16	5.09	4.24	3.57	3.33	3.18	3.00	2.77	2.65	2.88	3.06	3.06
4.72	4.70	4.38	4.04	3.80	3.77	3.73	3.55	3.37	3.44	3.64	3.81	3.85	3.79	3.66	3.49	3.26	3.02	2.81	2.61	2.31	2.03	1.94	2.03	2.24	2.45	2.55	2.51	2.41	2.36	2.25	2.09	2.03	2.08	2.22	2.42	2.52	2.42	2.29	2.30	2.41	2.55	2.73	2.91	3.25	3.92	4.35	4.42	4.03	3.31	2.41	1.64	1.24	1.25	1.52	1.79	1.86	1.91	2.21	2.76	3.39	3.86	4.15	4.31	4.40	4.48	4.48	4.33	4.13	4.07	4.35	4.77	4.67	3.88	2.93	2.39	2.22	2.13	2.17	2.51	3.04	3.44	3.48	3.34	3.42	3.68	3.76	3.64	3.58	3.67	3.78	3.89	4.12	4.44	4.74	4.90	4.91	4.79	4.61	4.72	5.38	5.92	5.60	4.72	4.52	4.34	4.01	3.57	3.17	3.08	3.48	4.35	5.08	5.42	5.09	4.23	3.46	2.96	2.72	2.57	2.42	2.46	2.79	3.03	3.03
4.82	4.60	4.07	3.61	3.16	2.90	2.76	2.58	2.50	2.57	2.71	2.80	2.92	3.11	3.34	3.40	3.26	2.96	2.66	2.39	2.10	1.85	1.76	1.81	1.90	1.93	1.88	1.85	1.90	2.00	2.04	2.04	2.13	2.28	2.37	2.48	2.55	2.50	2.40	2.42	2.55	2.70	2.85	3.12	3.58	4.18	4.34	4.12	3.59	2.88	2.17	1.74	1.66	1.92	2.29	2.47	2.35	2.35	2.78	3.50	4.14	4.63	4.89	5.00	5.09	5.18	5.15	4.97	4.73	4.63	4.76	4.65	3.85	2.82	2.33	2.35	2.50	2.50	2.60	3.01	3.60	3.94	3.90	3.92	4.19	4.34	4.18	3.89	3.76	3.79	3.88	3.97	4.16	4.37	4.33	3.98	3.63	3.37	3.25	3.72	4.87	5.50	4.84	3.98	3.99	3.87	3.33	2.80	2.64	3.12	4.20	4.94	5.42	5.46	4.94	4.16	3.65	3.21	2.77	2.52	2.45	2.48	2.69	2.90	2.90
4.67	4.22	3.49	2.94	2.40	2.19	2.27	2.35	2.37	2.52	2.63	2.61	2.64	2.75	2.99	3.20	3.15	2.89	2.56	2.22	1.94	1.75	1.63	1.58	1.58	1.62	1.71	1.85	1.98	2.11	2.22	2.28	2.39	2.57	2.68	2.80	2.91	2.89	2.82	2.91	3.15	3.45	3.74	4.12	4.47	4.58	4.27	3.75	3.21	2.71	2.27	2.11	2.27	2.64	3.02	3.10	2.92	3.06	3.69	4.50	5.19	5.60	5.71	5.68	5.63	5.62	5.62	5.53	5.40	5.21	4.94	4.35	3.31	2.78	2.90	3.19	3.23	3.10	3.15	3.57	4.09	4.40	4.54	4.74	4.85	4.64	4.26	3.93	3.81	3.82	3.90	3.98	4.04	3.92	3.42	2.95	2.80	2.85	3.11	3.97	5.26	5.45	4.36	3.57	3.48	3.17	2.60	2.37	2.66	3.51	4.32	4.89	5.42	5.34	4.58	3.83	3.60	3.55	3.43	3.28	3.17	3.00	2.93	2.95	2.95
4.38	3.97	3.16	2.39	1.92	1.99	2.41	2.75	2.99	3.22	3.34	3.30	3.28	3.21	3.12	3.09	3.01	2.83	2.53	2.19	1.92	1.74	1.60	1.54	1.61	1.78	2.02	2.23	2.38	2.51	2.62	2.66	2.76	2.98	3.19	3.38	3.53	3.56	3.51	3.66	4.05	4.42	4.76	4.95	4.91	4.54	3.91	3.31	2.98	2.78	2.54	2.55	2.85	3.31	3.65	3.61	3.54	3.88	4.70	5.53	6.05	6.19	6.04	5.82	5.63	5.53	5.53	5.53	5.53	5.36	5.02	4.60	4.10	4.05	4.40	4.58	4.45	4.20	4.20	4.43	4.75	5.02	5.26	5.36	5.09	4.62	4.16	3.81	3.71	3.75	3.87	3.91	3.79	3.43	3.05	3.02	3.30	3.60	4.09	4.99	5.70	5.32	3.94	3.13	2.98	2.70	2.26	2.28	2.78	3.33	3.94	4.88	5.54	5.16	4.19	3.55	3.38	3.52	3.75	3.90	3.84	3.59	3.32	3.20	3.20
4.20	3.81	2.94	2.19	2.05	2.70	3.46	3.94	4.27	4.45	4.50	4.44	4.25	3.87	3.42	3.11	2.94	2.80	2.58	2.32	2.07	1.88	1.75	1.76	1.96	2.20	2.43	2.66	2.87	3.04	3.19	3.33	3.51	3.68	3.87	4.09	4.30	4.37	4.46	4.68	4.98	5.18	5.19	4.96	4.48	3.79	3.09	2.75	2.82	2.85	2.93	3.16	3.56	3.98	4.11	3.93	4.01	4.65	5.52	6.06	6.20	5.99	5.60	5.29	5.13	5.09	5.16	5.17	5.08	5.06	5.13	5.22	5.45	5.70	5.94	6.05	6.02	5.94	5.88	5.77	5.71	5.70	5.68	5.42	4.87	4.25	3.79	3.56	3.62	3.76	3.88	3.86	3.67	3.51	3.64	4.02	4.38	4.64	5.03	5.67	5.75	4.87	3.55	2.83	2.55	2.19	1.83	1.95	2.42	3.04	4.19	5.43	5.57	4.61	3.63	3.21	3.10	3.22	3.51	3.74	3.82	3.78	3.58	3.43	3.43
3.87	3.31	2.40	2.14	2.69	3.78	4.69	5.21	5.48	5.50	5.35	5.10	4.74	4.19	3.66	3.27	3.02	2.83	2.64	2.47	2.28	2.14	2.11	2.25	2.46	2.67	2.89	3.15	3.36	3.55	3.86	4.25	4.62	4.85	4.97	5.07	5.11	5.10	5.23	5.40	5.43	5.25	4.84	4.23	3.50	2.79	2.42	2.47	2.87	3.15	3.46	3.86	4.22	4.38	4.27	4.11	4.43	5.22	5.76	5.89	5.61	5.15	4.71	4.46	4.45	4.56	4.68	4.67	4.53	4.59	4.97	5.40	5.85	6.20	6.41	6.61	6.75	6.78	6.66	6.44	6.13	5.89	5.59	5.07	4.43	3.94	3.75	3.85	4.04	4.12	4.05	3.93	3.86	4.01	4.38	4.61	4.66	4.72	5.13	5.59	5.18	3.93	3.05	2.45	1.95	1.49	1.39	1.79	2.47	3.55	4.93	5.58	5.10	3.80	3.13	2.97	2.98	3.01	3.01	3.05	3.22	3.47	3.52	3.51	3.51
3.09	2.61	2.16	2.53	3.68	4.90	5.62	5.87	5.86	5.65	5.34	4.99	4.61	4.20	3.84	3.48	3.14	2.84	2.67	2.58	2.49	2.50	2.69	2.95	3.17	3.32	3.55	3.79	3.98	4.22	4.69	5.24	5.63	5.83	5.85	5.68	5.49	5.40	5.40	5.31	5.02	4.53	3.88	3.14	2.54	2.27	2.36	2.78	3.34	3.78	4.22	4.59	4.73	4.60	4.38	4.41	4.86	5.32	5.47	5.16	4.64	4.12	3.69	3.46	3.58	3.71	3.78	3.79	3.81	3.97	4.32	4.77	5.24	5.56	5.73	5.90	6.05	6.10	6.09	5.92	5.71	5.43	5.11	4.71	4.44	4.40	4.57	4.79	4.88	4.63	4.29	4.05	4.02	4.17	4.32	4.17	3.94	4.10	4.86	5.11	4.14	3.11	2.37	1.82	1.50	1.40	1.70	2.44	3.24	4.20	5.24	5.38	4.42	3.33	2.96	3.01	3.12	3.06	2.86	2.69	2.75	3.01	3.21	3.34	3.34
2.90	2.82	3.02	3.83	4.98	5.80	6.03	5.83	5.44	5.00	4.65	4.36	4.09	3.92	3.74	3.47	3.15	2.85	2.73	2.75	2.85	3.11	3.50	3.82	4.05	4.24	4.43	4.65	4.90	5.24	5.69	6.02	6.06	5.92	5.64	5.31	5.16	5.06	4.85	4.43	3.92	3.36	2.73	2.22	2.12	2.37	2.88	3.53	4.05	4.54	4.87	4.94	4.84	4.70	4.57	4.67	4.93	5.02	4.75	4.18	3.60	3.10	2.66	2.55	2.70	2.75	2.71	2.78	2.96	3.18	3.60	3.98	4.25	4.33	4.31	4.33	4.25	4.37	4.52	4.54	4.71	4.80	4.73	4.69	4.78	4.92	5.05	5.06	4.91	4.61	4.27	4.03	3.94	3.90	3.69	3.38	3.43	4.06	4.82	4.62	3.41	2.33	1.62	1.34	1.47	1.97	2.63	3.42	4.12	4.73	5.31	5.02	3.80	2.96	2.86	3.10	3.28	3.22	3.07	2.90	2.80	2.89	3.06	3.23	3.23
3.58	3.92	4.60	5.25	5.81	6.06	5.80	5.21	4.60	4.23	3.98	3.76	3.58	3.48	3.38	3.23	3.05	2.90	2.89	3.05	3.39	3.81	4.20	4.49	4.69	4.91	5.17	5.46	5.77	6.09	6.27	6.14	5.70	5.12	4.55	4.26	4.43	4.36	3.88	3.22	2.65	2.28	1.98	2.04	2.42	2.90	3.54	4.18	4.71	5.08	5.09	4.91	4.68	4.55	4.54	4.58	4.57	4.35	3.82	3.22	2.68	2.14	1.90	2.04	2.26	2.28	2.28	2.45	2.64	2.85	3.17	3.50	3.67	3.62	3.39	3.18	3.13	3.42	3.69	3.77	3.96	4.24	4.44	4.54	4.61	4.55	4.38	4.12	3.98	3.93	3.89	3.81	3.76	3.63	3.43	3.44	3.86	4.46	4.69	4.07	2.75	1.76	1.36	1.42	1.88	2.52	3.28	4.10	4.68	4.99	4.96	4.36	3.18	2.73	2.86	3.05	3.11	3.06	3.06	3.08	3.00	2.93	3.04	3.17	3.17
4.21	4.60	5.20	5.55	5.73	5.63	5.13	4.52	3.99	3.76	3.61	3.39	3.20	3.07	3.03	3.01	2.97	2.98	3.08	3.26	3.54	3.83	4.11	4.42	4.69	5.02	5.41	5.75	5.97	6.04	5.86	5.34	4.56	3.90	3.50	3.52	3.67	3.39	2.74	2.20	1.89	1.83	2.02	2.51	2.99	3.49	4.13	4.72	5.13	5.17	4.87	4.49	4.25	4.16	4.15	4.13	3.98	3.64	3.09	2.53	1.99	1.61	1.64	1.93	2.15	2.22	2.38	2.70	2.90	2.95	3.06	3.19	3.31	3.29	3.06	2.83	2.96	3.39	3.55	3.48	3.62	3.81	3.95	4.00	3.93	3.77	3.60	3.48	3.46	3.52	3.57	3.58	3.59	3.57	3.65	3.94	4.21	4.44	4.30	3.44	2.26	1.68	1.69	2.13	2.69	3.17	3.68	4.30	4.65	4.55	4.21	3.68	3.10	3.10	3.26	3.20	3.07	2.98	2.93	2.96	2.94	2.80	2.84	2.95	2.95
4.70	4.81	4.99	5.12	5.12	4.85	4.42	3.98	3.68	3.51	3.33	3.10	2.92	2.82	2.83	2.90	2.95	3.02	3.07	3.09	3.16	3.29	3.50	3.84	4.37	4.90	5.33	5.53	5.46	5.17	4.63	3.91	3.21	2.84	2.78	2.88	2.78	2.39	1.97	1.80	1.87	2.16	2.66	3.13	3.60	4.14	4.67	5.08	5.18	4.93	4.52	4.20	3.97	3.80	3.72	3.67	3.53	3.21	2.71	2.16	1.73	1.68	2.00	2.37	2.56	2.66	2.95	3.19	3.12	2.99	2.99	3.03	3.03	3.03	2.93	2.88	3.12	3.40	3.32	3.14	3.24	3.32	3.38	3.45	3.48	3.52	3.57	3.60	3.58	3.49	3.43	3.42	3.44	3.49	3.62	3.78	3.97	4.12	3.85	2.91	2.00	1.75	2.13	2.77	3.20	3.44	3.72	4.10	4.11	3.62	3.56	3.73	3.83	4.03	4.05	3.95	3.84	3.61	3.19	2.89	2.66	2.46	2.55	2.74	2.74
5.17	4.89	4.60	4.62	4.52	4.25	3.94	3.60	3.39	3.23	3.01	2.81	2.67	2.61	2.68	2.82	2.91	2.95	2.94	2.91	2.99	3.20	3.54	4.02	4.61	5.08	5.22	5.02	4.58	3.99	3.30	2.68	2.25	2.14	2.23	2.28	2.16	1.99	1.93	2.05	2.37	2.83	3.29	3.77	4.27	4.75	5.09	5.15	4.91	4.54	4.20	3.93	3.70	3.54	3.53	3.50	3.36	3.07	2.67	2.27	2.14	2.41	2.84	3.14	3.28	3.44	3.60	3.45	3.12	3.02	3.09	2.98	2.81	2.83	2.94	3.00	3.14	3.27	3.10	2.94	2.98	3.02	3.05	3.25	3.42	3.57	3.60	3.55	3.46	3.35	3.28	3.24	3.25	3.31	3.39	3.46	3.68	3.79	3.30	2.27	1.64	1.73	2.33	2.79	2.90	2.99	3.27	3.50	3.36	3.23	3.80	4.57	4.95	5.00	4.94	4.84	4.60	4.16	3.57	2.88	2.44	2.26	2.44	2.91	2.91
5.49	5.07	4.53	4.39	4.23	4.02	3.82	3.55	3.32	3.13	2.90	2.71	2.58	2.58	2.67	2.72	2.89	2.99	3.05	3.19	3.49	3.94	4.45	4.89	5.15	5.15	4.84	4.28	3.59	2.92	2.29	1.91	1.84	1.97	2.10	2.17	2.17	2.22	2.36	2.56	2.88	3.28	3.81	4.41	4.92	5.25	5.16	4.94	4.51	4.11	3.78	3.53	3.39	3.36	3.45	3.51	3.33	3.09	2.94	2.95	3.17	3.58	3.94	4.12	4.18	4.17	3.97	3.62	3.39	3.41	3.29	2.96	2.70	2.84	3.06	3.04	3.07	3.19	3.15	3.03	3.01	2.99	3.04	3.20	3.39	3.48	3.43	3.30	3.22	3.18	3.15	3.10	3.12	3.22	3.27	3.32	3.49	3.37	2.54	1.53	1.25	1.53	2.06	2.25	2.25	2.42	2.69	2.85	3.08	3.83	5.06	5.78	5.77	5.51	5.20	4.86	4.40	3.90	3.43	2.85	2.54	2.47	2.84	3.33	3.33
5.73	5.27	4.63	4.40	4.20	4.02	3.91	3.77	3.58	3.42	3.24	3.01	2.92	2.91	2.93	2.90	2.98	3.18	3.40	3.73	4.22	4.71	5.02	5.09	4.93	4.57	4.04	3.35	2.59	1.99	1.69	1.72	1.97	2.26	2.42	2.49	2.54	2.63	2.83	3.02	3.26	3.67	4.33	4.98	5.40	5.49	5.19	4.65	4.14	3.72	3.41	3.27	3.26	3.35	3.47	3.40	3.17	3.16	3.36	3.78	4.37	4.90	5.19	5.29	5.16	4.92	4.52	4.19	4.12	3.95	3.42	2.86	2.81	3.14	3.25	3.08	3.10	3.31	3.34	3.23	3.11	3.05	3.08	3.15	3.22	3.29	3.27	3.18	3.12	3.09	3.06	3.05	3.11	3.20	3.20	3.18	3.19	2.80	1.83	1.26	1.14	1.42	1.71	1.87	2.00	2.22	2.49	2.95	3.95	5.34	6.42	6.53	5.88	5.16	4.68	4.19	3.71	3.31	3.04	2.83	2.82	3.05	3.46	3.63	3.63
5.78	5.31	4.67	4.38	4.18	4.09	3.99	3.91	3.80	3.68	3.54	3.37	3.32	3.32	3.28	3.16	3.11	3.25	3.54	4.00	4.47	4.70	4.60	4.26	3.88	3.50	3.06	2.46	1.86	1.58	1.71	2.15	2.53	2.73	2.83	2.90	2.96	3.06	3.25	3.41	3.66	4.15	4.89	5.41	5.61	5.41	4.93	4.37	3.90	3.57	3.41	3.37	3.38	3.43	3.37	3.16	3.09	3.37	3.80	4.50	5.25	5.70	5.83	5.76	5.64	5.44	5.20	5.03	4.76	4.26	3.62	3.18	3.32	3.57	3.49	3.32	3.49	3.76	3.75	3.52	3.28	3.12	3.06	3.05	3.09	3.14	3.16	3.16	3.12	3.06	3.01	3.01	3.06	3.13	3.11	3.05	2.91	2.37	1.74	1.56	1.66	1.77	1.89	2.05	2.21	2.45	3.01	4.16	5.61	6.71	7.02	6.38	4.93	4.31	4.09	3.79	3.42	3.03	2.79	2.80	3.01	3.49	3.67	3.61	3.61
5.62	5.32	4.80	4.45	4.22	4.10	4.02	3.95	3.83	3.65	3.43	3.25	3.24	3.28	3.26	3.20	3.10	3.13	3.40	3.83	4.06	3.91	3.50	3.07	2.75	2.51	2.24	1.89	1.63	1.78	2.33	2.84	3.08	3.18	3.21	3.27	3.40	3.52	3.62	3.81	4.14	4.69	5.25	5.55	5.41	4.95	4.40	4.01	3.81	3.69	3.70	3.77	3.70	3.61	3.41	3.25	3.35	3.73	4.19	4.97	5.57	5.85	5.80	5.56	5.42	5.38	5.39	5.42	5.23	4.86	4.56	4.40	4.37	4.15	3.82	3.84	4.17	4.41	4.21	3.78	3.35	3.05	2.89	2.93	3.04	3.08	3.11	3.16	3.18	3.14	3.01	2.92	2.97	3.05	3.03	2.94	2.69	2.18	1.92	2.09	2.30	2.39	2.48	2.60	2.78	3.22	4.19	5.60	6.79	7.18	6.69	5.27	3.93	3.62	3.60	3.44	3.18	2.80	2.53	2.49	2.66	3.02	3.17	3.16	3.16
5.65	5.45	4.98	4.60	4.37	4.23	4.12	3.99	3.78	3.54	3.29	3.10	3.04	2.99	2.96	2.76	2.91	2.98	3.23	3.40	3.20	2.73	2.26	1.95	1.77	1.73	1.72	1.70	1.87	2.39	2.98	3.29	3.41	3.45	3.49	3.60	3.70	3.75	3.86	4.09	4.53	5.02	5.37	5.33	4.93	4.31	3.92	3.73	3.71	3.84	3.92	4.00	4.03	3.89	3.67	3.55	3.63	3.93	4.41	5.15	5.49	5.36	4.94	4.70	4.71	4.93	5.16	5.38	5.57	5.63	5.66	5.56	5.27	4.90	4.59	4.67	4.85	4.72	4.25	3.58	3.06	2.81	2.75	2.80	2.87	2.94	3.00	3.04	3.11	3.18	3.14	3.05	3.10	3.08	2.97	2.83	2.53	2.23	2.25	2.56	2.83	3.01	3.21	3.43	3.76	4.37	5.38	6.53	7.11	6.76	5.45	3.98	3.20	3.04	2.97	2.87	2.69	2.50	2.33	2.16	2.08	2.22	2.61	2.93	2.93
5.89	5.54	4.97	4.65	4.49	4.41	4.24	4.00	3.74	3.57	3.43	3.27	3.15	2.98	2.82	2.69	2.72	2.86	2.95	2.72	2.17	1.61	1.25	1.15	1.24	1.47	1.71	1.93	2.25	2.69	3.11	3.27	3.29	3.32	3.43	3.59	3.63	3.68	3.85	4.21	4.72	5.16	5.29	5.01	4.56	4.10	3.81	3.68	3.67	3.77	3.92	4.04	4.14	4.05	3.82	3.60	3.60	3.79	4.33	5.00	5.17	4.76	4.26	4.06	4.12	4.42	4.79	5.08	5.40	5.68	5.85	5.82	5.58	5.37	5.32	5.29	5.02	4.43	3.68	3.09	2.79	2.67	2.63	2.61	2.67	2.76	2.84	2.86	2.92	3.07	3.24	3.33	3.34	3.17	2.97	2.81	2.68	2.72	2.97	3.24	3.47	3.74	4.01	4.32	4.77	5.34	6.05	6.67	6.60	5.46	4.12	3.31	2.93	2.83	2.72	2.49	2.35	2.38	2.44	2.42	2.47	2.49	3.00	3.51	3.51
5.92	5.43	4.76	4.53	4.43	4.34	4.14	3.85	3.64	3.55	3.50	3.38	3.22	3.02	2.85	2.67	2.65	2.67	2.48	1.97	1.41	1.01	0.88	1.02	1.32	1.71	2.07	2.34	2.57	2.75	2.87	2.89	2.83	2.84	2.98	3.15	3.29	3.44	3.75	4.26	4.76	5.08	5.00	4.60	4.20	3.88	3.63	3.59	3.62	3.64	3.73	3.95	4.02	3.91	3.68	3.39	3.28	3.42	4.08	4.75	4.80	4.27	3.84	3.77	3.96	4.23	4.39	4.45	4.63	4.84	4.97	5.07	5.14	5.20	5.23	5.12	4.59	3.81	3.25	3.00	2.85	2.59	2.39	2.48	2.67	2.75	2.77	2.74	2.71	2.77	2.99	3.20	3.25	3.14	3.02	2.98	3.06	3.24	3.47	3.67	3.83	4.02	4.27	4.68	5.20	5.69	6.09	6.16	5.65	4.59	3.89	3.62	3.48	3.39	3.25	2.86	2.55	2.48	2.60	2.83	3.10	3.29	3.64	3.94	3.94
5.47	5.15	4.72	4.51	4.26	3.94	3.63	3.45	3.32	3.31	3.33	3.26	3.09	2.92	2.81	2.68	2.61	2.46	2.11	1.67	1.35	1.24	1.31	1.56	1.89	2.27	2.54	2.72	2.82	2.85	2.83	2.72	2.58	2.54	2.63	2.82	3.10	3.35	3.72	4.24	4.65	4.75	4.43	3.85	3.32	3.08	3.07	3.19	3.32	3.48	3.60	3.77	3.82	3.59	3.29	3.05	2.93	3.15	3.83	4.48	4.52	4.01	3.72	3.73	3.93	4.10	4.01	3.80	3.77	3.88	3.84	3.94	4.25	4.57	4.67	4.56	4.22	3.77	3.45	3.24	2.80	2.34	2.27	2.62	2.92	2.96	2.84	2.72	2.60	2.48	2.53	2.73	2.85	2.95	3.06	3.16	3.26	3.32	3.38	3.50	3.64	3.80	4.14	4.68	5.18	5.52	5.67	5.48	5.07	4.70	4.42	4.19	4.03	3.90	3.66	3.26	2.84	2.55	2.47	2.59	2.87	3.21	3.61	3.85	3.85
4.92	4.96	4.90	4.64	4.15	3.61	3.26	3.10	2.97	2.96	3.06	3.07	2.96	2.84	2.72	2.58	2.48	2.32	2.07	1.86	1.84	1.98	2.22	2.45	2.69	2.91	3.05	3.08	3.11	3.11	3.02	2.83	2.63	2.57	2.66	2.88	3.15	3.42	3.77	4.20	4.44	4.29	3.72	2.96	2.58	2.59	2.78	3.00	3.23	3.39	3.55	3.67	3.59	3.29	2.95	2.83	2.85	3.14	3.74	4.32	4.40	4.14	3.94	3.84	3.80	3.67	3.45	3.26	3.28	3.40	3.41	3.44	3.67	4.00	4.01	4.04	4.14	4.12	3.90	3.40	2.67	2.36	2.69	3.23	3.51	3.46	3.26	2.98	2.70	2.50	2.45	2.51	2.61	2.80	3.04	3.20	3.22	3.21	3.26	3.38	3.57	3.86	4.21	4.57	4.87	5.03	4.98	4.85	4.84	4.80	4.43	4.00	3.73	3.50	3.21	2.90	2.68	2.56	2.47	2.55	2.81	3.09	3.50	3.81	3.81
4.96	5.16	5.25	4.88	4.34	3.69	3.26	3.00	2.77	2.64	2.64	2.72	2.76	2.74	2.62	2.43	2.33	2.26	2.21	2.27	2.51	2.83	3.14	3.36	3.49	3.50	3.45	3.39	3.34	3.30	3.20	3.02	2.83	2.77	2.89	3.08	3.34	3.59	3.93	4.24	4.23	3.84	3.18	2.60	2.54	2.83	3.19	3.53	3.70	3.64	3.58	3.58	3.45	3.17	2.88	2.83	2.89	3.18	3.69	4.27	4.48	4.38	4.08	3.72	3.39	3.13	2.97	2.91	3.05	3.25	3.28	3.31	3.50	3.71	3.66	3.76	4.07	4.27	4.22	3.89	3.37	3.36	3.81	4.20	4.30	4.04	3.63	3.25	3.00	2.87	2.84	2.85	2.91	3.01	3.10	3.17	3.20	3.23	3.35	3.51	3.68	3.84	3.96	4.10	4.26	4.27	4.10	4.32	4.85	4.83	4.23	3.72	3.36	2.96	2.68	2.59	2.62	2.80	3.10	3.50	3.76	3.91	4.01	4.01	4.01
5.35	5.48	5.41	4.95	4.39	3.81	3.37	3.01	2.70	2.44	2.28	2.30	2.43	2.51	2.47	2.34	2.25	2.28	2.43	2.75	3.17	3.56	3.86	4.05	4.06	3.99	3.87	3.72	3.57	3.43	3.27	3.13	3.05	3.12	3.33	3.54	3.73	3.98	4.28	4.40	4.21	3.73	3.21	3.04	3.35	3.80	4.19	4.38	4.34	3.96	3.64	3.45	3.38	3.16	2.91	2.86	2.92	3.21	3.73	4.41	4.66	4.46	3.98	3.46	3.04	2.77	2.71	2.79	2.96	3.16	3.17	3.12	3.35	3.53	3.52	3.60	3.85	4.13	4.38	4.63	4.78	4.86	4.97	5.00	4.75	4.11	3.45	3.05	3.01	3.20	3.36	3.43	3.46	3.40	3.30	3.24	3.25	3.22	3.15	3.13	3.22	3.19	3.18	3.30	3.44	3.35	3.47	4.35	5.15	5.04	4.35	3.89	3.56	3.25	3.02	2.85	2.90	3.18	3.58	3.92	4.16	4.26	4.05	3.80	3.80
5.69	5.59	5.14	4.58	4.05	3.60	3.29	2.96	2.59	2.28	2.13	2.10	2.14	2.24	2.31	2.28	2.22	2.28	2.58	3.05	3.50	3.82	4.00	4.10	4.10	4.10	4.05	3.94	3.82	3.66	3.43	3.27	3.28	3.47	3.72	3.97	4.21	4.46	4.68	4.77	4.61	4.24	4.05	4.11	4.44	4.80	4.95	4.78	4.43	3.99	3.61	3.38	3.30	3.17	2.91	2.84	2.92	3.28	3.90	4.59	4.77	4.43	3.86	3.36	2.98	2.79	2.77	2.83	2.93	3.11	3.09	2.94	3.12	3.39	3.45	3.50	3.66	3.89	4.33	4.89	5.36	5.45	5.30	4.99	4.35	3.51	3.05	3.08	3.41	3.73	3.87	3.84	3.83	3.77	3.61	3.42	3.28	3.08	2.76	2.49	2.37	2.34	2.44	2.67	2.85	3.02	3.72	5.03	5.61	5.26	4.46	3.99	3.74	3.59	3.39	3.11	3.02	3.04	3.05	3.06	3.26	3.40	3.26	3.20	3.20
5.93	5.50	4.61	3.96	3.49	3.22	2.99	2.64	2.27	1.99	1.88	1.87	1.94	2.07	2.18	2.19	2.14	2.22	2.52	2.95	3.23	3.34	3.37	3.44	3.58	3.75	3.88	3.98	3.96	3.84	3.67	3.56	3.59	3.74	3.98	4.32	4.64	4.83	5.03	5.19	5.12	4.85	4.70	4.74	4.91	5.00	4.78	4.30	3.89	3.55	3.36	3.27	3.28	3.19	2.93	2.85	2.97	3.40	4.04	4.65	4.73	4.18	3.61	3.25	3.00	2.89	2.81	2.77	2.81	2.98	2.96	2.79	2.91	3.31	3.44	3.42	3.48	3.73	4.12	4.56	4.87	4.93	4.74	4.32	3.66	3.21	3.38	4.07	4.65	4.85	4.78	4.63	4.51	4.23	3.89	3.54	3.25	3.03	2.79	2.49	2.23	2.18	2.39	2.73	3.08	3.68	4.71	5.71	5.91	5.22	4.24	3.71	3.53	3.45	3.28	3.08	2.90	2.71	2.47	2.36	2.40	2.45	2.71	3.00	3.00
5.98	5.31	4.09	3.38	3.00	2.79	2.53	2.20	1.94	1.79	1.73	1.78	1.92	2.08	2.13	2.08	2.04	2.15	2.37	2.53	2.57	2.57	2.63	2.81	3.17	3.58	3.84	4.01	4.05	3.99	3.92	3.87	3.92	4.12	4.51	4.99	5.20	5.27	5.37	5.44	5.36	5.05	4.79	4.67	4.66	4.59	4.28	3.87	3.56	3.30	3.22	3.25	3.34	3.24	3.03	3.00	3.18	3.60	4.05	4.43	4.35	3.72	3.09	2.82	2.68	2.64	2.58	2.54	2.61	2.80	2.85	2.73	2.85	3.28	3.44	3.28	3.24	3.51	3.92	4.13	4.03	3.95	3.99	3.90	3.79	3.92	4.67	5.43	5.75	5.76	5.63	5.42	5.08	4.50	3.93	3.52	3.26	3.13	3.08	2.99	2.92	2.97	3.25	3.81	4.42	4.97	5.58	6.02	5.85	5.01	3.95	3.45	3.28	3.15	3.04	2.96	2.90	2.87	2.82	2.75	2.72	2.76	3.12	3.46	3.46
5.81	5.07	3.79	3.05	2.76	2.57	2.36	2.15	2.04	2.05	2.13	2.25	2.29	2.21	1.53	1.97	1.95	2.06	2.13	2.10	2.14	2.29	2.54	2.87	3.36	3.72	3.90	4.00	4.02	4.05	4.15	4.28	4.49	4.90	5.40	5.76	5.85	5.80	5.62	5.38	5.20	4.78	4.42	4.29	4.23	4.27	4.20	4.10	3.90	3.76	3.62	3.56	3.52	3.32	3.14	3.10	3.27	3.58	3.80	3.96	3.84	3.27	2.64	2.36	2.24	2.24	2.30	2.40	2.53	2.67	2.74	2.72	2.89	3.31	3.48	3.22	3.07	3.30	3.77	3.89	3.57	3.38	3.53	3.85	4.22	4.81	5.53	5.96	5.89	5.68	5.49	5.24	4.87	4.39	3.84	3.44	3.22	3.09	2.97	3.08	3.44	3.93	4.54	5.12	5.44	5.60	5.79	5.86	5.49	4.70	3.91	3.53	3.41	3.28	3.05	2.91	2.94	3.08	3.24	3.43	3.71	3.90	3.93	3.92	3.92
5.49	4.87	3.79	3.17	2.93	2.78	2.61	2.46	2.43	2.55	2.73	2.83	2.65	2.25	1.98	1.93	1.98	2.05	2.07	2.11	2.33	2.67	3.00	3.32	3.61	3.81	3.84	3.83	3.94	4.07	4.37	4.70	5.18	5.66	6.02	6.18	6.16	5.91	5.55	5.11	4.71	4.34	4.01	3.82	3.90	3.94	4.07	4.18	4.24	4.25	4.18	3.89	3.61	3.31	3.05	2.96	3.03	3.15	3.23	3.41	3.40	2.99	2.45	2.25	2.23	2.26	2.33	2.40	2.46	2.57	2.69	2.72	2.92	3.34	3.51	3.20	2.99	3.29	3.80	3.79	3.34	3.13	3.27	3.79	4.50	5.09	5.53	5.59	5.29	4.93	4.60	4.28	4.07	3.90	3.63	3.28	2.98	2.78	2.69	2.95	3.75	4.55	5.08	5.30	5.25	5.12	5.34	5.47	5.14	4.53	3.91	3.61	3.48	3.31	3.04	2.92	2.94	3.06	3.32	3.75	4.14	4.22	3.98	3.77	3.77
5.24	4.79	3.97	3.48	3.23	3.05	2.85	2.74	2.83	3.03	3.17	3.11	2.69	2.30	2.14	2.14	2.21	2.29	2.42	2.67	3.04	3.39	3.68	3.89	4.01	4.00	3.93	3.89	4.02	4.20	4.61	5.12	5.73	6.09	6.11	5.97	5.80	5.46	4.99	4.52	4.13	3.82	3.49	3.37	3.48	3.61	3.76	3.88	4.00	4.02	3.97	3.74	3.48	3.15	2.90	2.83	2.84	2.84	2.84	3.12	3.23	3.02	2.73	2.67	2.70	2.59	2.48	2.43	2.49	2.63	2.72	2.69	2.82	3.20	3.32	3.00	2.94	3.39	3.85	3.71	3.22	3.10	3.41	4.00	4.57	4.90	5.05	5.02	4.79	4.48	4.13	3.81	3.55	3.36	3.20	3.01	2.72	2.53	2.63	3.13	3.85	4.32	4.38	4.22	4.05	4.03	4.81	5.37	5.18	4.63	4.02	3.63	3.38	3.15	3.01	2.96	2.96	3.02	3.27	3.56	3.64	3.36	3.27	3.26	3.26
5.10	4.71	4.04	3.63	3.38	3.21	3.10	3.15	3.33	3.48	3.45	3.15	2.65	2.44	2.36	2.38	2.51	2.70	2.99	3.39	3.80	4.12	4.32	4.38	4.37	4.26	4.16	4.15	4.27	4.43	4.91	5.49	5.91	5.96	5.69	5.36	5.09	4.78	4.35	3.96	3.65	3.33	2.98	2.82	3.06	3.42	3.51	3.35	3.15	2.94	2.90	3.03	3.10	2.97	2.87	2.94	3.03	3.08	3.14	3.29	3.37	3.34	3.33	3.32	3.04	2.70	2.63	2.74	2.83	2.76	2.59	2.50	2.64	2.91	3.00	2.87	2.94	3.43	3.84	3.65	3.25	3.34	3.80	4.17	4.38	4.56	4.56	4.36	4.20	4.10	3.97	3.79	3.49	3.12	2.88	2.71	2.54	2.38	2.44	2.79	3.20	3.45	3.33	3.23	3.22	3.62	4.89	5.75	5.54	4.90	4.37	3.96	3.65	3.43	3.21	3.07	2.97	2.92	2.88	2.76	2.49	2.36	2.69	3.05	3.05
5.00	4.67	4.12	3.79	3.67	3.67	3.73	3.82	3.89	3.84	3.58	3.11	2.69	2.52	2.47	2.59	2.84	3.15	3.53	3.94	4.28	4.48	4.54	4.46	4.37	4.27	4.22	4.28	4.48	4.75	5.33	5.70	5.74	5.43	5.06	4.81	4.59	4.32	3.86	3.45	3.12	2.80	2.48	2.35	2.70	3.26	3.17	2.77	2.40	2.24	2.31	2.52	2.67	2.73	2.89	3.17	3.38	3.48	3.49	3.44	3.49	3.62	3.60	3.36	2.93	2.83	3.04	3.12	2.88	2.44	2.22	2.32	2.56	2.75	2.87	2.96	3.16	3.52	3.83	3.69	3.38	3.54	3.84	3.99	4.12	4.27	4.16	3.73	3.38	3.19	3.15	3.19	3.16	3.01	2.77	2.51	2.33	2.17	2.18	2.41	2.73	2.94	3.03	3.13	3.42	4.28	5.67	6.27	5.81	4.93	4.43	4.11	3.82	3.54	3.22	2.99	2.91	2.86	2.69	2.44	2.29	2.47	3.10	3.59	3.59
5.03	4.80	4.41	4.21	4.19	4.26	4.31	4.31	4.21	3.98	3.58	3.11	2.81	2.71	2.77	2.99	3.28	3.61	3.98	4.24	4.36	4.36	4.29	4.17	4.15	4.17	4.19	4.35	4.74	5.20	5.68	5.65	5.29	4.83	4.55	4.43	4.20	3.90	3.43	3.01	2.63	2.27	2.00	1.94	2.43	3.03	2.99	2.68	2.51	2.49	2.46	2.39	2.37	2.51	2.89	3.35	3.51	3.45	3.32	3.29	3.42	3.66	3.55	3.27	3.19	3.34	3.29	2.88	2.32	2.03	2.12	2.46	2.73	2.87	3.02	3.27	3.56	3.78	3.68	3.77	3.54	3.54	3.70	3.82	3.99	4.05	3.82	3.44	2.99	2.57	2.40	2.46	2.61	2.72	2.64	2.47	2.27	2.08	2.26	2.59	2.86	3.06	3.27	3.52	4.13	5.37	6.45	6.54	5.65	4.50	4.07	3.91	3.69	3.42	3.12	2.95	2.91	2.97	2.99	3.00	3.16	3.46	3.89	4.17	4.17
5.23	5.03	4.71	4.56	4.49	4.44	4.36	4.25	4.05	3.76	3.42	3.10	3.01	3.06	3.28	3.52	3.74	3.99	4.18	4.22	4.16	4.07	3.97	3.93	4.03	4.14	4.27	4.59	5.13	5.57	5.69	5.38	4.86	4.44	4.15	3.91	3.64	3.38	3.05	2.66	2.24	1.88	1.74	1.90	2.46	3.02	3.20	3.05	2.88	2.65	2.35	2.20	2.39	2.76	3.16	3.45	3.46	3.28	3.15	3.20	3.39	3.65	3.59	3.46	3.46	3.35	2.79	2.29	2.14	2.33	2.70	3.00	3.17	3.26	3.45	3.73	3.97	4.06	4.07	4.00	3.80	3.66	3.74	3.92	4.02	3.93	3.69	3.42	3.18	2.99	2.82	2.55	2.46	2.47	2.46	2.45	2.38	2.36	2.60	2.98	3.25	3.48	3.76	4.12	4.86	6.11	6.88	6.44	5.16	4.21	3.88	3.75	3.61	3.48	3.35	3.21	3.13	3.12	3.19	3.35	3.69	4.14	4.22	4.13	4.13
5.47	5.22	4.80	4.55	4.36	4.18	3.99	3.78	3.55	3.32	3.09	2.99	2.99	3.17	3.47	3.71	3.89	4.01	4.03	3.98	3.92	3.87	3.82	3.84	3.96	4.14	4.37	4.86	5.45	5.66	5.38	4.90	4.60	4.22	3.77	3.40	3.14	2.93	2.72	2.45	2.02	1.78	1.85	2.29	2.77	3.23	3.41	3.11	2.62	2.18	2.00	2.30	3.04	3.69	3.83	3.72	3.57	3.39	3.28	3.28	3.41	3.68	3.64	3.47	3.27	2.93	2.61	2.61	2.94	3.35	3.66	3.82	3.91	3.96	4.08	4.31	4.50	4.51	4.50	4.49	4.17	3.87	3.87	4.07	4.10	3.97	3.76	3.56	3.48	3.45	3.25	2.83	2.55	2.41	2.36	2.42	2.68	3.08	3.41	3.61	3.70	3.89	4.32	4.87	5.73	6.81	7.05	6.12	4.83	4.20	3.89	3.65	3.53	3.50	3.51	3.39	3.20	3.02	2.93	3.12	3.58	4.02	3.91	3.68	3.68
5.60	5.32	4.72	4.32	4.07	3.81	3.56	3.29	3.07	2.88	2.72	2.70	2.69	2.89	3.21	3.44	3.61	3.72	3.75	3.73	3.72	3.71	3.70	3.73	3.85	4.05	4.36	4.98	5.62	5.61	5.10	4.62	4.41	4.03	3.42	2.94	2.75	2.61	2.43	2.16	1.84	1.72	1.95	2.41	2.78	3.17	3.28	2.80	2.27	2.09	2.41	3.39	4.40	4.75	4.56	4.07	3.77	3.56	3.44	3.44	3.55	3.76	3.75	3.56	3.47	3.56	3.90	4.32	4.69	4.96	5.04	5.09	5.13	5.14	5.17	5.30	5.36	5.27	5.15	4.89	4.43	3.99	3.92	4.03	4.06	3.92	3.72	3.59	3.51	3.34	2.98	2.66	2.52	2.54	2.61	2.88	3.38	3.91	4.21	4.27	4.22	4.40	5.03	5.90	6.76	7.17	6.83	5.58	4.53	4.05	3.69	3.41	3.33	3.32	3.31	3.14	2.90	2.65	2.50	2.65	3.09	3.28	3.18	3.19	3.19
5.62	5.33	4.59	4.10	3.84	3.60	3.32	3.06	2.83	2.59	2.50	2.52	2.54	2.78	3.05	3.25	3.40	3.49	3.55	3.54	3.53	3.53	3.54	3.59	3.71	3.91	4.29	5.07	5.74	5.53	4.90	4.54	4.32	3.88	3.25	2.75	2.54	2.34	2.06	1.73	1.50	1.49	1.77	2.15	2.54	2.97	3.15	2.82	2.54	2.80	3.82	5.02	5.58	5.42	4.85	4.20	3.83	3.66	3.61	3.72	3.85	4.04	4.08	4.23	4.53	4.99	5.51	5.97	6.27	6.42	6.47	6.49	6.50	6.49	6.45	6.37	6.26	6.06	5.68	5.11	4.51	4.05	3.90	3.89	3.85	3.66	3.45	3.40	3.26	2.91	2.61	2.48	2.52	2.77	3.08	3.49	3.85	4.02	4.05	4.04	4.22	4.81	5.79	6.81	7.33	7.04	6.17	4.96	4.12	3.63	3.23	2.95	2.93	3.03	3.02	2.85	2.54	2.26	2.13	2.22	2.52	2.77	3.16	3.55	3.55
5.71	5.32	4.51	3.99	3.75	3.53	3.29	3.09	2.86	2.61	2.64	2.75	2.89	3.14	3.33	3.44	3.47	3.46	3.42	3.37	3.36	3.37	3.39	3.45	3.58	3.83	4.36	5.28	5.76	5.31	4.53	4.37	4.19	3.74	3.30	2.93	2.57	2.16	1.73	1.47	1.40	1.56	1.95	2.33	2.68	3.08	3.42	3.50	3.63	4.34	5.47	6.07	5.97	5.29	4.64	4.11	3.82	3.71	3.66	3.73	3.90	4.20	4.40	4.72	5.23	5.71	6.04	6.30	6.44	6.53	6.61	6.70	6.75	6.75	6.66	6.48	6.29	6.10	5.73	5.23	4.74	4.33	3.94	3.74	3.58	3.39	3.23	3.16	2.89	2.47	2.39	2.40	2.53	2.74	2.89	3.04	3.11	3.04	2.90	2.91	3.53	4.78	6.24	7.07	7.06	6.25	5.33	4.50	3.86	3.39	3.06	2.75	2.63	2.71	2.70	2.55	2.27	1.97	1.77	1.81	2.21	2.83	3.72	4.23	4.23
5.82	5.34	4.45	3.99	3.73	3.49	3.28	3.14	2.96	2.79	2.95	3.20	3.43	3.61	3.67	3.64	3.54	3.39	3.27	3.23	3.25	3.27	3.28	3.34	3.51	3.85	4.51	5.38	5.56	4.84	4.14	4.02	3.88	3.60	3.34	3.09	2.62	2.13	1.82	1.76	1.98	2.41	2.84	3.11	3.38	3.84	4.46	4.95	5.47	6.03	6.38	6.28	5.59	4.71	4.21	3.85	3.62	3.44	3.32	3.29	3.54	3.97	4.47	4.76	5.10	5.30	5.26	5.15	5.10	5.17	5.32	5.51	5.59	5.57	5.46	5.30	5.22	5.10	4.94	4.79	4.65	4.46	4.19	3.81	3.46	3.27	3.15	2.98	2.58	2.22	2.25	2.30	2.33	2.32	2.23	2.17	2.19	2.28	2.42	2.73	3.67	5.24	6.52	6.72	5.92	4.82	4.29	3.97	3.72	3.51	3.29	2.95	2.62	2.47	2.35	2.24	2.12	1.93	1.82	1.94	2.39	3.18	4.23	4.80	4.80
5.82	5.27	4.35	3.88	3.61	3.36	3.19	3.09	2.95	2.88	3.09	3.40	3.63	3.72	3.65	3.48	3.28	3.12	3.04	3.04	3.08	3.11	3.14	3.27	3.53	3.93	4.58	5.25	5.18	4.38	3.84	3.73	3.58	3.37	3.23	2.92	2.55	2.30	2.26	2.52	2.93	3.36	3.69	3.99	4.46	5.18	5.86	6.21	6.36	6.38	6.21	5.67	4.92	4.21	3.81	3.50	3.24	3.00	2.92	2.96	3.29	3.81	4.31	4.61	4.61	4.32	3.98	3.62	3.56	3.69	3.85	3.98	3.98	3.86	3.78	3.69	3.70	3.68	3.66	3.73	3.90	4.03	4.05	3.78	3.50	2.69	2.98	2.68	2.34	2.18	2.19	2.14	2.04	2.02	2.11	2.28	2.48	2.87	3.49	4.34	5.48	6.24	6.34	5.83	4.67	3.77	3.53	3.44	3.36	3.35	3.23	2.95	2.62	2.41	2.23	2.11	2.02	1.85	1.98	2.35	2.81	3.50	4.65	5.37	5.37
5.63	5.10	4.21	3.69	3.39	3.18	3.11	3.08	2.98	2.92	3.03	3.23	3.40	3.36	3.18	2.94	2.76	2.68	2.68	2.73	2.80	2.90	3.07	3.36	3.69	4.03	4.57	5.02	4.86	4.25	3.83	3.69	3.51	3.30	3.06	2.69	2.44	2.41	2.57	2.94	3.39	3.77	4.13	4.59	5.39	6.19	6.58	6.55	6.17	5.73	5.30	4.81	4.30	3.85	3.51	3.20	2.97	2.81	2.88	3.13	3.51	3.89	4.21	4.38	4.15	3.70	3.36	3.20	3.27	3.36	3.29	3.11	2.96	2.85	2.79	2.75	2.82	2.88	2.83	2.77	2.83	2.98	3.07	3.15	3.22	2.53	2.80	2.49	2.31	2.26	2.24	2.18	2.19	2.43	2.87	3.32	3.81	4.44	5.29	6.02	6.29	6.10	5.56	4.82	3.97	3.46	3.25	3.00	2.72	2.64	2.66	2.59	2.48	2.39	2.21	2.13	2.01	1.70	1.76	2.26	2.96	3.66	4.81	5.60	5.60
5.37	4.93	4.14	3.62	3.29	3.02	2.94	2.97	2.91	2.85	2.82	2.82	2.82	2.65	2.41	2.25	2.18	2.18	2.26	2.43	2.67	2.92	3.22	3.58	3.86	4.16	4.57	4.88	4.80	4.48	4.10	3.82	3.57	3.30	2.95	2.50	2.30	2.32	2.50	2.82	3.26	3.73	4.23	5.01	6.02	6.55	6.51	5.89	5.06	4.61	4.36	4.13	3.85	3.61	3.34	3.06	2.90	2.89	3.12	3.43	3.68	3.83	3.95	4.04	3.88	3.63	3.51	3.48	3.44	3.27	2.95	2.57	2.40	2.36	2.34	2.36	2.44	2.45	2.26	2.02	1.92	1.92	2.06	2.45	2.84	2.95	2.79	2.57	2.42	2.39	2.45	2.61	2.93	3.38	3.77	4.28	4.92	5.69	6.14	6.08	5.54	4.91	4.49	4.08	3.84	3.57	3.17	2.78	2.53	2.46	2.44	2.39	2.35	2.29	2.15	2.19	2.22	2.18	2.19	2.52	3.02	3.65	4.85	5.58	5.58
5.17	4.84	4.22	3.72	3.31	2.92	2.62	2.56	2.55	2.51	2.47	2.37	2.16	1.88	1.70	1.65	1.68	1.80	2.07	2.44	2.83	3.20	3.53	3.78	4.01	4.28	4.62	4.88	4.89	4.68	4.19	3.75	3.42	3.14	2.81	2.36	2.19	2.23	2.39	2.67	3.08	3.64	4.37	5.48	6.38	6.51	5.91	4.94	4.25	3.92	3.75	3.59	3.45	3.38	3.20	3.01	2.92	2.97	3.21	3.34	3.33	3.30	3.42	3.66	3.87	3.94	3.86	3.70	3.32	2.83	2.36	2.13	2.12	2.15	2.10	2.02	2.05	1.97	1.66	1.48	1.55	1.77	2.22	2.76	3.00	2.95	2.82	2.66	2.55	2.56	2.74	3.03	3.39	3.75	4.20	4.90	5.60	5.88	5.61	4.83	4.09	3.69	3.48	3.54	3.84	3.86	3.56	3.37	3.38	3.33	3.11	2.79	2.53	2.33	2.23	2.27	2.48	2.85	3.13	3.33	3.51	3.92	4.91	5.55	5.55
5.18	4.97	4.47	3.94	3.41	2.90	2.46	2.30	2.23	2.22	2.22	2.06	1.80	1.59	1.52	1.56	1.71	2.03	2.46	2.88	3.25	3.60	3.83	4.03	4.26	4.51	4.73	4.94	4.97	4.71	4.09	3.66	3.41	3.16	2.79	2.47	2.40	2.48	2.64	2.89	3.29	3.89	4.81	5.97	6.44	6.08	5.07	4.20	3.62	3.33	3.24	3.15	3.08	3.05	2.95	2.86	2.80	2.80	2.86	2.74	2.55	2.53	2.87	3.49	4.12	4.24	3.92	3.43	2.83	2.35	2.14	2.16	2.21	2.12	1.87	1.60	1.55	1.35	1.52	1.54	1.90	2.56	3.37	3.76	3.55	3.15	2.90	2.74	2.70	2.75	2.91	3.14	3.41	3.82	4.58	5.34	5.53	5.07	4.17	3.38	2.93	2.71	2.79	3.42	4.21	4.55	4.64	4.67	4.60	4.36	3.98	3.45	2.93	2.60	2.53	2.50	2.58	3.06	3.78	4.39	4.79	5.03	5.29	5.40	5.40
5.38	5.17	4.62	4.06	3.50	2.99	2.65	2.50	2.35	2.25	2.22	2.11	1.96	1.93	2.06	2.28	2.57	2.97	3.31	3.58	3.83	4.06	4.22	4.43	4.68	4.84	4.89	5.03	5.12	4.92	4.49	4.15	3.95	3.64	3.15	2.91	2.98	3.10	3.27	3.50	3.86	4.40	5.33	6.20	6.22	5.32	4.29	3.51	3.02	2.84	2.85	2.82	2.77	2.71	2.66	2.61	2.51	2.39	2.27	2.14	2.12	2.33	2.86	3.72	4.37	4.26	3.56	2.90	2.46	2.38	2.55	2.68	2.45	2.03	1.66	1.62	1.76	1.83	1.95	2.41	3.24	4.17	4.62	4.27	3.82	3.30	3.02	2.87	2.86	2.92	3.05	3.26	3.64	4.27	5.03	5.20	4.60	3.64	2.70	2.28	2.18	2.31	2.89	4.04	5.01	5.42	5.37	5.14	4.83	4.46	4.02	3.49	3.06	2.89	2.92	2.97	3.13	3.72	4.64	5.49	5.92	5.88	5.27	4.85	4.85
5.61	5.22	4.44	3.93	3.51	3.18	2.97	2.82	2.59	2.35	2.26	2.30	2.38	2.59	2.94	3.33	3.73	4.07	4.29	4.41	4.54	4.60	4.70	4.89	5.06	5.03	5.02	5.21	5.34	5.13	4.81	4.53	4.28	3.93	3.47	3.25	3.30	3.45	3.66	3.92	4.27	4.78	5.57	6.00	5.58	4.51	3.62	2.99	2.58	2.48	2.55	2.54	2.49	2.48	2.46	2.43	2.33	2.20	2.17	2.29	2.53	2.94	3.51	4.20	4.50	4.12	3.29	2.81	2.79	3.02	3.20	2.99	2.39	1.82	1.69	1.93	2.26	2.59	3.09	3.85	4.73	5.18	4.99	4.25	3.58	3.23	3.05	2.92	2.93	3.05	3.24	3.52	4.00	4.63	4.88	4.28	3.12	2.28	1.89	1.90	2.26	2.87	3.84	4.87	5.64	5.69	5.02	4.33	4.02	3.82	3.54	3.22	3.03	3.06	3.26	3.60	4.22	5.02	5.71	5.94	5.80	5.26	4.36	3.78	3.78
5.75	5.13	4.11	3.62	3.41	3.29	3.18	2.95	2.61	2.30	2.22	2.34	2.64	3.06	3.54	3.97	4.34	4.63	4.81	4.88	4.89	4.93	5.05	5.17	5.12	4.97	5.07	5.36	5.37	4.97	4.44	4.07	3.78	3.55	3.36	3.28	3.30	3.48	3.72	4.02	4.40	4.85	5.39	5.47	4.79	3.79	3.07	2.58	2.27	2.21	2.23	2.23	2.29	2.38	2.45	2.46	2.43	2.43	2.60	2.83	3.17	3.71	4.31	4.76	4.62	4.15	3.51	3.40	3.66	3.80	3.51	2.88	2.22	2.09	2.44	2.89	3.39	3.95	4.61	5.23	5.52	5.29	4.51	3.69	3.28	3.09	2.97	2.89	2.93	3.12	3.36	3.66	4.12	4.47	4.09	3.01	2.20	1.96	2.16	2.71	3.37	4.10	4.85	5.46	5.66	5.25	4.17	3.37	3.07	2.96	2.91	2.94	3.02	3.15	3.48	4.14	4.98	5.53	5.62	5.23	4.62	3.80	3.22	3.06	3.06
5.75	5.07	3.90	3.32	3.13	3.04	2.97	2.77	2.45	2.19	2.13	2.23	2.54	3.02	3.47	3.79	4.07	4.26	4.35	4.41	4.55	4.77	4.96	4.94	4.72	4.64	5.01	5.39	5.22	4.67	4.11	3.62	3.28	3.12	3.13	3.27	3.47	3.66	3.85	4.03	4.28	4.55	4.89	4.86	4.27	3.34	2.66	2.32	2.15	2.08	2.02	2.07	2.20	2.40	2.61	2.73	2.83	2.95	3.11	3.29	3.68	4.42	5.08	5.26	4.84	4.34	4.10	4.17	4.35	4.23	3.68	3.09	2.89	3.35	4.01	4.58	5.10	5.53	5.85	5.86	5.51	4.78	3.93	3.38	2.79	2.94	2.91	2.95	3.04	3.21	3.41	3.67	4.04	4.03	3.27	2.54	2.38	2.69	3.24	3.89	4.53	5.07	5.38	5.47	5.28	4.69	3.75	3.03	2.67	2.51	2.51	2.65	2.90	3.19	3.63	4.41	4.96	4.91	4.32	3.71	3.18	2.69	2.71	2.87	2.87
5.69	4.93	3.65	3.04	2.72	2.56	2.49	2.37	2.17	2.00	1.90	1.90	2.10	2.44	2.75	2.97	3.13	3.18	3.13	3.26	3.76	4.28	4.42	4.16	3.81	4.09	4.91	5.34	5.05	4.51	4.18	3.91	3.65	3.45	3.33	3.43	3.65	3.79	3.82	3.78	3.81	4.03	4.42	4.55	4.13	3.27	2.68	2.55	2.50	2.37	2.27	2.33	2.44	2.57	2.79	3.00	3.20	3.45	3.69	4.06	4.67	5.38	5.68	5.47	4.93	4.51	4.53	4.78	4.87	4.68	4.38	4.27	4.60	5.17	5.66	6.03	6.28	6.34	6.15	5.64	4.97	4.25	3.64	3.21	2.96	2.84	2.90	3.01	3.12	3.27	3.44	3.66	3.89	3.61	2.96	2.85	3.21	3.64	4.12	4.61	5.02	5.17	5.01	4.76	4.67	4.38	3.72	3.17	2.93	2.78	2.69	2.69	2.88	3.21	3.71	4.15	4.09	3.51	2.75	2.27	1.95	1.99	2.66	3.17	3.17
5.45	4.63	3.38	2.78	2.47	2.25	2.07	1.95	1.83	1.65	1.47	1.35	1.45	1.68	1.90	2.06	2.14	2.16	2.35	2.75	3.33	3.78	3.75	3.33	3.14	3.78	4.93	5.32	4.92	4.25	4.07	4.06	4.00	3.92	3.71	3.58	3.54	3.53	3.40	3.24	3.25	3.72	4.36	4.69	4.41	3.84	3.45	3.39	3.36	3.24	3.14	3.07	2.93	2.83	2.90	3.04	3.25	3.65	4.21	4.95	5.63	5.90	5.70	5.14	4.53	4.37	4.72	5.00	5.10	5.07	5.17	5.48	5.87	6.13	6.28	6.33	6.26	5.99	5.49	4.91	4.38	3.86	3.41	2.81	2.80	2.73	2.79	2.88	3.00	3.19	3.41	3.62	3.72	3.37	3.08	3.35	3.76	4.12	4.47	4.72	4.74	4.43	3.97	3.87	4.13	4.07	3.50	3.01	2.89	2.80	2.71	2.70	2.88	3.12	3.34	3.25	2.69	2.09	1.65	1.41	1.44	1.98	3.18	3.94	3.94
5.06	4.40	3.27	2.66	2.33	2.07	1.85	1.69	1.53	1.38	1.13	0.95	1.05	1.34	1.62	1.69	1.66	1.83	2.30	2.87	3.34	3.55	3.33	2.97	3.04	3.94	5.12	5.33	4.75	3.93	3.68	3.70	3.78	3.83	3.70	3.41	3.11	2.91	2.82	2.80	3.02	3.78	4.69	5.08	4.84	4.44	4.26	4.17	4.11	4.00	3.76	3.49	3.21	3.02	3.01	3.11	3.36	3.90	4.68	5.43	5.73	5.53	5.00	4.30	4.00	4.26	4.78	4.97	4.83	4.89	5.18	5.50	5.71	5.74	5.64	5.44	5.11	4.70	4.36	4.03	3.70	3.37	3.07	2.77	2.30	2.54	2.63	2.73	2.86	3.10	3.33	3.51	3.55	3.33	3.30	3.59	3.87	4.11	4.27	4.22	3.89	3.38	3.05	3.25	3.69	3.68	3.01	2.44	2.29	2.30	2.40	2.58	2.77	2.83	2.65	2.22	1.82	1.59	1.45	1.45	1.77	2.55	3.93	4.76	4.76
4.78	4.30	3.40	2.75	2.35	2.06	1.79	1.54	1.46	1.38	1.17	1.11	1.32	1.60	1.81	1.85	1.86	2.13	2.65	3.07	3.33	3.44	3.31	3.14	3.40	4.39	5.30	5.30	4.55	3.68	3.27	3.18	3.28	3.33	3.27	3.08	2.80	2.60	2.63	2.89	3.39	4.33	5.17	5.35	4.95	4.55	4.43	4.42	4.34	4.09	3.69	3.40	3.21	3.13	3.16	3.31	3.65	4.29	5.01	5.36	5.10	4.52	3.99	3.59	3.74	4.35	4.84	4.73	4.29	4.29	4.53	4.65	4.58	4.51	4.41	4.15	3.74	3.36	3.14	3.05	2.89	2.71	2.50	2.35	2.25	2.28	2.44	2.59	2.78	3.02	3.19	3.32	3.36	3.29	3.33	3.49	3.63	3.65	3.47	3.13	2.72	2.45	2.50	2.90	3.37	3.38	2.89	2.46	2.46	2.65	2.84	2.87	2.80	2.65	2.37	2.03	1.88	1.95	2.08	2.30	2.71	3.34	4.46	5.18	5.18
4.64	4.24	3.49	2.91	2.48	2.13	1.78	1.59	1.61	1.61	1.65	1.84	2.12	2.27	2.30	2.33	2.44	2.69	3.00	3.28	3.38	3.49	3.60	3.72	4.09	4.91	5.50	5.30	4.53	3.63	3.13	2.88	2.78	2.79	2.87	2.98	3.01	3.09	3.29	3.61	4.15	4.90	5.40	5.35	4.81	4.37	4.31	4.33	4.16	3.87	3.57	3.37	3.24	3.20	3.26	3.42	3.80	4.46	5.02	4.92	4.31	3.77	3.39	3.28	3.61	4.27	4.73	4.43	3.85	3.78	3.88	3.79	3.60	3.43	3.29	3.16	2.84	2.48	2.19	2.10	2.05	1.88	1.73	1.63	1.66	1.84	2.13	2.44	2.70	2.88	2.97	3.05	3.11	3.12	3.12	3.13	3.06	2.76	2.41	2.11	1.95	2.06	2.46	2.89	3.24	3.32	3.25	3.34	3.64	3.79	3.62	3.26	2.93	2.77	2.72	2.69	2.70	2.79	2.93	3.16	3.53	3.99	4.73	5.21	5.21
4.55	4.16	3.45	2.89	2.49	2.15	1.87	1.84	1.95	2.14	2.43	2.72	2.84	2.83	2.76	2.79	2.95	3.13	3.31	3.52	3.66	3.89	4.19	4.45	4.84	5.49	5.83	5.47	4.71	3.87	3.36	3.01	2.80	2.80	2.91	3.18	3.51	3.83	4.06	4.26	4.56	5.01	5.30	5.16	4.65	4.23	4.12	4.00	3.78	3.62	3.53	3.40	3.29	3.27	3.36	3.54	3.97	4.56	4.75	4.27	3.58	3.24	3.01	3.01	3.38	4.14	4.59	4.25	3.63	3.45	3.37	3.20	3.03	2.81	2.56	2.41	2.20	1.89	1.60	1.41	1.28	1.10	0.93	0.92	1.12	1.52	2.08	2.56	2.81	2.87	2.88	2.92	2.98	2.98	2.90	2.73	2.42	2.04	1.80	1.78	1.98	2.38	2.77	3.04	3.25	3.47	3.83	4.28	4.46	4.23	3.67	3.19	2.96	2.96	3.10	3.26	3.35	3.39	3.43	3.57	3.80	4.19	4.74	5.05	5.05
4.48	4.08	3.36	2.80	2.41	2.15	2.05	2.13	2.34	2.68	3.08	3.31	3.39	3.38	3.34	3.33	3.40	3.55	3.68	3.85	4.02	4.34	4.57	4.92	5.46	6.07	6.12	5.60	4.80	4.17	3.78	3.50	3.36	3.32	3.31	3.48	3.73	3.95	4.05	4.10	4.30	4.74	5.03	4.90	4.48	4.04	3.79	3.51	3.28	3.25	3.27	3.25	3.25	3.22	3.45	3.73	4.14	4.38	4.05	3.37	2.94	2.78	2.68	2.88	3.43	4.20	4.42	3.96	3.35	3.11	2.94	2.74	2.63	2.43	2.16	1.92	1.66	1.36	1.01	0.82	0.77	0.65	0.58	0.79	1.27	1.94	2.64	3.02	3.06	3.00	3.06	3.14	3.11	2.97	2.76	2.46	2.18	2.01	2.03	2.16	2.36	2.63	2.88	3.04	3.23	3.68	4.41	4.81	4.61	4.08	3.57	3.25	3.14	3.14	3.15	3.15	3.11	3.04	3.06	3.19	3.42	3.84	4.55	4.93	4.93
4.41	3.96	3.20	2.64	2.29	2.11	2.08	2.14	2.33	2.70	3.09	3.37	3.60	3.78	3.91	3.96	3.96	4.02	4.11	4.16	4.28	4.57	4.82	5.27	5.87	6.22	6.06	5.37	4.63	4.22	4.04	3.97	3.93	3.75	3.57	3.55	3.57	3.54	3.54	3.70	4.05	4.49	4.76	4.67	4.32	3.89	3.52	3.14	2.87	2.76	2.77	2.87	3.04	3.21	3.42	3.69	3.91	3.74	3.09	2.65	2.52	2.43	2.52	2.96	3.53	4.00	4.01	3.49	2.92	2.63	2.44	2.20	2.04	1.97	1.76	1.45	1.11	0.67	0.51	0.58	0.72	0.71	0.81	1.29	2.05	2.84	3.38	3.43	3.27	3.24	3.39	3.46	3.32	3.05	2.74	2.43	2.30	2.32	2.37	2.40	2.44	2.54	2.74	2.93	3.22	3.97	4.98	5.18	4.60	4.04	3.76	3.61	3.47	3.27	3.00	2.70	2.46	2.36	2.47	2.74	3.11	3.67	4.59	5.11	5.11
4.27	3.79	2.96	2.48	2.20	2.04	1.98	1.91	1.94	2.18	2.51	2.95	3.41	3.84	4.19	4.39	4.44	4.46	4.46	4.44	4.53	4.81	5.11	5.60	5.97	5.94	5.52	4.90	4.27	3.95	3.87	3.91	3.92	3.73	3.53	3.43	3.35	3.32	3.46	3.75	4.03	4.30	4.47	4.53	4.36	3.95	3.45	2.92	2.47	2.23	2.27	2.50	2.83	2.95	3.25	3.34	3.24	2.79	2.32	2.20	2.17	2.09	2.35	2.82	3.16	3.41	3.46	3.15	2.60	2.17	1.96	1.75	1.63	1.54	1.26	0.89	0.61	0.46	0.46	0.72	1.07	1.30	1.59	2.22	3.02	3.74	4.00	3.87	3.75	3.87	3.95	3.78	3.48	3.16	2.85	2.61	2.44	2.27	2.05	1.91	2.00	2.27	2.63	2.92	3.42	4.49	5.49	5.45	4.61	4.01	3.73	3.59	3.43	3.17	2.87	2.62	2.50	2.57	2.76	2.95	3.28	3.92	4.88	5.38	5.38
4.09	3.58	2.79	2.41	2.19	2.05	1.99	1.88	1.79	1.87	2.10	2.48	3.00	3.60	4.12	4.45	4.62	4.69	4.74	4.78	4.88	5.12	5.49	5.88	5.89	5.50	4.97	4.39	3.84	3.46	3.28	3.28	3.38	3.40	3.39	3.35	3.33	3.39	3.60	3.84	3.98	4.08	4.27	4.50	4.44	3.90	3.15	2.45	2.11	2.11	2.34	2.72	3.02	3.08	3.00	2.80	2.43	2.03	1.85	1.85	1.80	1.80	2.06	2.45	2.75	3.01	3.22	3.07	2.58	2.17	1.98	1.77	1.53	1.27	0.91	0.61	0.50	0.63	1.03	1.53	1.99	2.35	2.67	3.34	4.24	4.94	5.08	4.97	4.90	4.83	4.50	4.01	3.56	3.25	2.99	2.71	2.37	2.01	1.70	1.62	1.88	2.28	2.67	3.09	3.84	5.05	5.79	5.42	4.32	3.58	3.21	3.07	3.03	2.94	2.88	2.85	2.92	3.01	3.04	3.07	3.27	3.89	4.93	5.54	5.54
3.91	3.43	2.73	2.40	2.22	2.14	2.12	2.08	2.09	2.17	2.31	2.54	2.91	3.41	3.90	4.29	4.55	4.77	5.01	5.19	5.33	5.58	5.98	6.13	5.80	5.17	4.59	4.07	3.56	3.21	3.03	3.01	3.03	3.08	3.18	3.24	3.28	3.35	3.53	3.74	3.76	3.78	4.06	4.41	4.31	3.52	2.74	2.42	2.54	2.88	3.23	3.46	3.44	3.16	2.84	2.53	2.27	2.08	2.02	1.99	1.95	2.05	2.29	2.62	3.04	3.37	3.51	3.36	3.00	2.71	2.48	2.13	1.62	1.18	0.90	0.82	0.99	1.44	2.00	2.64	3.24	3.72	4.15	5.00	6.02	6.60	6.66	6.45	6.08	5.43	4.64	4.00	3.53	3.23	2.96	2.57	2.14	1.87	1.84	2.02	2.33	2.60	2.91	3.38	4.27	5.47	5.92	5.19	3.84	2.92	2.66	2.71	2.79	2.82	2.86	2.85	2.75	2.63	2.55	2.63	2.96	3.70	5.02	5.78	5.78
3.75	3.29	2.69	2.41	2.30	2.26	2.27	2.39	2.67	2.95	3.14	3.26	3.43	3.68	3.98	4.34	4.64	5.00	5.33	5.63	5.90	6.13	6.31	6.20	5.60	4.90	4.41	4.08	3.72	3.54	3.50	3.42	3.21	3.09	3.13	3.14	3.17	3.28	3.44	3.46	3.36	3.41	3.81	4.28	4.22	3.64	3.33	3.55	3.88	4.06	4.09	3.93	3.59	3.18	2.96	2.91	2.88	2.87	2.87	2.88	2.94	3.14	3.43	3.82	4.16	4.18	3.93	3.64	3.32	3.01	2.59	2.04	1.51	1.24	1.26	1.50	1.85	2.45	3.26	4.26	5.18	5.79	6.28	6.95	7.44	7.54	7.21	6.76	6.23	5.41	4.56	3.90	3.45	3.13	2.80	2.40	2.02	1.84	1.97	2.23	2.47	2.74	3.16	3.72	4.66	5.76	6.07	5.20	3.81	3.04	2.93	3.00	2.94	2.86	2.78	2.59	2.34	2.16	2.17	2.40	2.93	3.89	5.34	6.04	6.04
3.59	3.19	2.68	2.47	2.44	2.44	2.47	2.75	3.24	3.74	4.08	4.28	4.37	4.37	4.44	4.70	5.01	5.44	5.77	5.95	6.20	6.37	6.27	5.88	5.25	4.72	4.43	4.25	4.07	3.98	3.95	3.86	3.64	3.51	3.42	3.30	3.25	3.30	3.28	3.15	3.12	3.35	3.83	4.35	4.46	4.24	4.17	4.33	4.41	4.31	4.12	3.83	3.52	3.25	3.19	3.27	3.32	3.40	3.53	3.71	3.93	4.25	4.54	4.69	4.57	4.15	3.61	3.37	3.11	2.64	2.08	1.62	1.42	1.51	1.87	2.32	2.83	3.69	4.96	6.27	7.14	7.60	7.75	7.74	7.53	6.95	6.05	5.57	5.35	5.01	4.48	3.90	3.45	3.12	2.79	2.49	2.22	2.00	1.94	1.99	2.20	2.66	3.34	4.12	5.16	6.18	6.39	5.59	4.53	3.99	3.78	3.52	3.18	2.96	2.80	2.61	2.47	2.49	2.62	2.85	3.30	4.26	5.56	6.17	6.17
3.48	3.15	2.72	2.57	2.58	2.57	2.63	3.05	3.74	4.40	4.84	5.05	5.12	5.09	5.09	5.28	5.63	6.03	6.15	6.18	5.99	6.14	5.80	5.33	4.83	4.55	4.40	4.27	4.14	4.07	4.01	3.90	3.74	3.62	3.48	3.34	3.29	3.25	3.17	3.16	3.31	3.56	3.98	4.48	4.64	4.39	4.08	3.92	3.69	3.48	3.35	3.29	3.27	3.26	3.23	3.22	3.28	3.42	3.62	3.85	4.17	4.52	4.62	4.38	3.81	3.12	2.75	2.83	2.70	2.20	1.77	1.63	1.77	2.14	2.70	3.25	3.92	5.06	6.50	7.44	7.77	7.74	7.45	7.01	6.43	5.54	4.57	4.08	4.10	4.22	4.13	3.82	3.46	3.16	2.89	2.73	2.60	2.44	2.23	2.10	2.35	2.89	3.63	4.57	5.68	6.71	6.65	5.58	4.69	4.32	4.01	3.55	3.19	3.03	3.01	3.02	3.03	3.09	3.18	3.32	3.66	4.54	5.66	6.16	6.16
3.40	3.12	2.77	2.68	2.71	2.72	2.91	3.56	4.40	4.89	5.05	5.05	5.10	5.26	5.51	5.87	6.24	6.41	6.21	5.80	5.51	5.36	5.13	4.77	4.49	4.34	4.19	4.05	3.96	3.93	3.85	3.68	3.40	3.18	3.07	3.08	3.13	3.13	3.10	3.11	3.16	3.38	3.87	4.46	4.56	4.11	3.59	3.20	2.97	2.83	2.80	2.89	2.99	3.03	3.03	3.05	3.15	3.28	3.42	3.61	3.92	4.13	3.90	3.25	2.55	2.16	2.23	2.56	2.53	2.23	2.05	2.14	2.54	3.14	3.83	4.47	5.26	6.41	7.32	7.53	6.95	6.08	5.41	5.04	4.85	4.56	4.10	3.56	3.27	3.35	3.55	3.56	3.38	3.14	2.97	2.93	2.96	2.99	3.01	3.09	3.43	3.84	4.35	5.16	6.29	7.01	6.40	4.69	3.81	3.54	3.42	3.29	3.14	3.09	3.16	3.25	3.26	3.24	3.27	3.43	3.84	4.72	5.69	6.09	6.09
3.36	3.13	2.88	2.85	2.95	3.12	3.67	4.40	4.77	4.73	4.50	4.38	4.57	5.09	5.65	6.15	6.28	6.32	5.91	5.36	4.99	4.78	4.60	4.42	4.31	4.25	4.05	3.87	3.80	3.80	3.73	3.55	3.24	3.04	3.02	3.05	3.05	2.99	2.87	2.77	2.83	3.17	3.81	4.35	4.40	4.00	3.56	3.25	3.06	2.98	2.94	2.92	2.86	2.81	2.89	3.01	3.14	3.22	3.32	3.49	3.68	3.52	2.87	2.20	1.91	2.03	2.44	2.72	2.74	2.78	2.99	3.37	4.08	4.87	5.54	6.22	6.96	7.54	7.47	6.79	5.67	4.44	3.84	3.62	3.64	3.78	3.85	3.67	3.31	3.17	3.27	3.37	3.29	3.13	3.07	3.12	3.30	3.60	4.02	4.48	4.86	5.12	5.31	5.81	6.73	6.80	5.46	3.76	2.96	2.76	2.78	2.83	2.90	2.99	3.02	2.97	2.95	3.00	3.15	3.44	3.99	4.88	5.68	5.97	5.97
3.34	3.16	3.02	3.07	3.22	3.65	4.22	4.48	4.34	3.97	3.76	3.92	4.42	5.15	5.81	6.19	6.16	5.78	5.27	4.83	4.53	4.33	4.22	4.19	4.21	4.17	3.96	3.81	3.77	3.80	3.78	3.67	3.51	3.46	3.46	3.36	3.15	2.90	2.73	2.74	3.01	3.37	3.77	4.11	4.22	3.96	3.55	3.25	3.06	2.94	2.82	2.71	2.63	2.68	2.88	3.09	3.25	3.36	3.45	3.54	3.44	2.89	2.23	2.00	2.23	2.71	3.08	3.28	3.51	3.99	4.48	5.16	6.02	6.69	7.15	7.57	7.83	7.69	6.97	6.03	5.09	4.16	3.67	3.44	3.28	3.20	3.34	3.52	3.54	3.42	3.32	3.27	3.24	3.21	3.22	3.32	3.61	4.13	4.80	5.31	5.69	5.96	6.12	6.40	6.64	6.23	4.67	3.55	3.14	2.91	2.65	2.56	2.70	2.84	2.83	2.72	2.69	2.85	3.18	3.58	4.19	5.07	5.65	5.79	5.79
3.28	3.07	2.98	3.12	3.30	3.69	3.97	3.90	3.69	3.63	3.79	4.20	4.89	5.64	6.14	6.19	5.87	5.37	4.87	4.50	4.22	4.02	3.91	3.93	4.01	4.00	3.82	3.71	3.74	3.78	3.77	3.75	3.75	3.75	3.69	3.49	3.17	2.87	2.75	2.84	3.03	3.15	3.30	3.66	3.97	3.81	3.27	2.86	2.64	2.49	2.38	2.37	2.52	2.75	3.01	3.26	3.47	3.57	3.57	3.42	3.02	2.40	2.11	2.36	2.99	3.53	3.91	4.35	4.88	5.26	5.76	6.48	7.10	7.41	7.45	7.45	7.27	6.69	6.02	5.49	5.03	4.52	4.11	3.81	3.51	3.16	2.99	3.09	3.29	3.35	3.25	3.20	3.24	3.32	3.42	3.60	3.93	4.45	5.08	5.58	5.90	6.09	6.23	6.41	6.37	5.85	4.90	4.13	3.79	3.56	3.23	3.06	3.03	2.96	2.92	2.91	2.96	3.15	3.42	3.78	4.39	5.16	5.55	5.58	5.58
3.18	2.94	2.84	3.02	3.19	3.41	3.60	3.69	3.85	4.12	4.44	4.96	5.66	6.19	6.32	6.04	5.53	4.99	4.51	4.17	3.93	3.73	3.64	3.68	3.77	3.79	3.63	3.50	3.47	3.49	3.44	3.51	3.61	3.62	3.52	3.30	3.01	2.78	2.64	2.57	2.57	2.57	2.71	3.24	3.76	3.70	3.19	2.80	2.64	2.59	2.63	2.82	3.13	3.32	3.34	3.39	3.42	3.31	3.05	2.70	2.30	2.08	2.27	2.93	3.77	4.44	5.04	5.50	5.67	5.84	6.21	6.66	6.95	6.83	6.56	6.24	5.83	5.41	5.10	4.95	4.85	4.71	4.48	4.23	3.91	3.48	3.03	2.81	2.84	2.99	3.07	3.18	3.32	3.47	3.67	3.99	4.42	4.91	5.35	5.58	5.57	5.49	5.58	5.99	6.22	5.82	5.22	4.73	4.37	4.08	3.81	3.60	3.37	3.20	3.17	3.20	3.26	3.31	3.44	3.78	4.39	5.11	5.39	5.37	5.37
3.09	2.91	2.87	3.10	3.29	3.47	3.70	3.99	4.36	4.68	5.11	5.70	6.23	6.33	6.07	5.58	5.03	4.49	4.04	3.75	3.55	3.41	3.37	3.41	3.54	3.60	3.44	3.17	2.97	2.95	2.91	3.00	3.17	3.28	3.24	3.07	2.85	2.73	2.60	2.48	2.49	2.61	2.84	3.31	3.74	3.78	3.55	3.36	3.31	3.38	3.53	3.70	3.82	3.79	3.54	3.34	3.14	2.84	2.54	2.31	2.18	2.33	2.89	3.80	4.73	5.48	5.84	5.78	5.55	5.58	5.94	6.16	6.01	5.58	5.24	5.04	4.84	4.66	4.51	4.35	4.34	4.46	4.46	4.31	4.03	3.63	3.18	2.81	2.65	2.76	2.98	3.23	3.47	3.69	4.01	4.48	4.96	5.25	5.33	5.10	4.65	4.52	4.94	5.74	6.21	5.79	5.15	4.83	4.59	4.30	3.93	3.57	3.31	3.22	3.17	3.05	2.90	2.84	3.00	3.49	4.18	4.98	5.28	5.23	5.23
3.05	2.99	3.07	3.33	3.54	3.72	3.97	4.32	4.70	5.09	5.60	6.08	6.26	6.00	5.46	4.90	4.39	3.85	3.46	3.21	3.10	3.08	3.11	3.17	3.35	3.43	3.24	2.81	2.49	2.40	2.35	2.41	2.62	2.85	2.94	2.95	2.91	2.92	2.90	2.93	3.09	3.32	3.56	3.79	4.01	4.11	4.12	4.13	4.16	4.09	3.99	3.91	3.84	3.69	3.50	3.36	3.24	3.16	3.10	3.04	3.09	3.38	4.00	4.90	5.70	6.05	5.78	5.11	4.81	5.10	5.59	5.71	5.38	4.86	4.58	4.49	4.45	4.39	4.27	4.02	3.88	3.98	4.13	4.08	3.89	3.64	3.24	2.87	2.69	2.77	3.01	3.29	3.57	3.87	4.30	4.73	4.88	4.77	4.48	3.92	3.47	3.75	4.68	5.80	6.19	5.52	4.70	4.40	4.28	4.15	3.90	3.54	3.24	3.08	2.94	2.69	2.47	2.42	2.63	3.17	4.10	5.10	5.28	5.09	5.09
3.13	3.15	3.21	3.31	3.48	3.76	4.13	4.54	4.95	5.38	5.80	6.01	5.84	5.33	4.72	4.26	3.84	3.40	3.02	2.82	2.82	2.83	2.77	2.92	3.20	3.29	3.10	2.70	2.25	2.11	2.12	2.26	2.43	2.55	2.68	2.85	2.98	3.08	3.17	3.36	3.63	3.88	4.02	4.10	4.27	4.44	4.54	4.55	4.47	4.18	3.90	3.80	3.81	3.75	3.58	3.52	3.58	3.69	3.74	3.79	3.96	4.32	4.92	5.64	6.14	5.94	5.10	4.46	4.49	4.98	5.45	5.45	5.04	4.55	4.33	4.28	4.29	4.30	4.16	3.92	3.69	3.62	3.66	3.69	3.65	3.55	3.25	2.87	2.70	2.84	3.09	3.34	3.62	3.94	4.24	4.27	3.96	3.61	3.19	2.67	2.70	3.49	4.75	5.90	6.05	5.10	4.09	3.67	3.65	3.72	3.73	3.59	3.30	3.04	2.89	2.78	2.72	2.77	3.01	3.64	4.67	5.49	5.27	4.81	4.81
3.28	3.30	3.27	3.22	3.36	3.76	4.23	4.71	5.14	5.50	5.71	5.64	5.27	4.72	4.22	3.85	3.49	3.10	2.76	2.63	2.65	2.58	2.50	2.71	3.08	3.24	3.17	2.95	2.56	2.42	2.55	2.74	2.72	2.64	2.62	2.69	2.82	2.97	3.21	3.55	3.82	3.90	3.92	4.00	4.25	4.55	4.69	4.64	4.45	4.21	4.12	4.16	4.14	3.96	3.68	3.62	3.68	3.75	3.86	4.05	4.34	4.73	5.29	5.80	5.97	5.45	4.64	4.43	4.67	5.03	5.30	5.17	4.68	4.16	3.88	3.91	4.01	4.01	3.89	3.72	3.52	3.33	3.17	3.27	3.38	3.39	3.26	3.00	2.85	2.94	3.11	3.30	3.53	3.68	3.57	3.09	2.61	2.28	1.99	1.95	2.45	3.58	4.97	6.00	5.92	4.84	3.81	3.26	3.05	3.03	3.17	3.31	3.25	3.02	2.88	2.89	3.05	3.35	3.91	4.65	5.43	5.66	5.01	4.39	4.39
3.31	3.33	3.31	3.31	3.52	3.93	4.39	4.85	5.20	5.40	5.43	5.20	4.79	4.31	3.89	3.54	3.21	2.84	2.53	2.44	2.43	2.32	2.36	2.68	3.14	3.45	3.58	3.59	3.52	3.54	3.61	3.53	3.29	3.05	2.85	2.68	2.78	3.09	3.48	3.75	3.74	3.62	3.63	3.89	4.25	4.66	4.89	4.88	4.76	4.68	4.59	4.47	4.25	3.98	3.73	3.65	3.67	3.78	4.03	4.27	4.54	4.85	5.23	5.54	5.52	5.01	4.54	4.59	4.75	4.86	4.94	4.78	4.29	3.70	3.30	3.29	3.44	3.49	3.46	3.39	3.27	3.11	2.90	2.93	3.11	3.21	3.24	3.25	3.20	3.12	3.09	3.16	3.21	3.04	2.59	2.08	1.73	1.53	1.54	1.93	2.70	3.98	5.41	6.23	5.92	4.84	3.92	3.36	2.96	2.66	2.60	2.80	2.89	2.80	2.63	2.63	2.97	3.59	4.41	5.19	5.65	5.47	4.62	4.03	4.03
3.30	3.30	3.34	3.47	3.78	4.18	4.56	4.88	5.11	5.20	5.12	4.84	4.44	4.00	3.58	3.23	2.88	2.49	2.23	2.20	2.24	2.33	2.62	3.07	3.57	3.94	4.17	4.24	4.28	4.36	4.35	4.13	3.79	3.48	3.25	3.02	3.22	3.65	3.83	3.71	3.45	3.41	3.64	3.98	4.39	4.90	5.27	5.29	5.14	5.00	4.80	4.50	4.20	3.98	3.78	3.70	3.75	3.95	4.16	4.28	4.39	4.55	4.81	5.13	5.13	4.76	4.42	4.43	4.46	4.48	4.56	4.46	4.10	3.57	3.07	2.97	3.00	2.97	2.91	2.88	2.90	2.86	2.76	2.74	2.85	2.97	3.14	3.30	3.35	3.24	3.12	3.05	2.88	2.56	2.18	1.91	1.80	1.82	2.09	2.73	3.72	5.12	6.33	6.57	5.88	4.70	3.87	3.39	3.02	2.62	2.39	2.42	2.49	2.51	2.48	2.67	3.18	3.89	4.63	5.26	5.49	5.12	4.26	3.75	3.75
3.32	3.33	3.41	3.61	3.97	4.29	4.52	4.73	4.95	5.02	4.86	4.53	4.13	3.69	3.25	2.83	2.41	2.05	1.97	2.12	2.35	2.70	3.15	3.63	4.08	4.41	4.56	4.51	4.43	4.45	4.40	4.26	4.02	3.78	3.58	3.47	3.64	3.80	3.61	3.27	3.16	3.34	3.55	3.84	4.35	5.10	5.52	5.38	5.03	4.82	4.69	4.52	4.31	4.09	3.86	3.77	3.79	3.86	3.88	3.89	3.90	3.97	4.31	4.77	4.91	4.63	4.24	4.08	4.06	4.17	4.37	4.45	4.28	3.88	3.34	3.02	2.87	2.74	2.61	2.52	2.50	2.46	2.35	2.33	2.47	2.62	2.79	2.97	3.09	3.13	3.07	2.93	2.73	2.52	2.35	2.32	2.48	2.83	3.40	4.26	5.41	6.63	7.18	6.73	5.67	4.61	3.82	3.18	2.67	2.30	2.21	2.31	2.45	2.60	2.89	3.42	3.88	4.30	4.73	5.11	5.18	4.73	3.87	3.43	3.43
3.35	3.34	3.42	3.61	3.88	4.07	4.26	4.57	4.86	4.91	4.63	4.22	3.80	3.32	2.78	2.26	1.92	1.93	2.22	2.49	2.78	3.13	3.53	3.98	4.38	4.61	4.64	4.45	4.23	4.12	4.12	4.12	4.09	4.04	3.93	3.76	3.59	3.35	3.07	2.92	2.96	3.06	3.15	3.45	4.25	5.21	5.54	5.09	4.47	4.21	4.16	4.15	4.13	4.06	3.95	3.82	3.71	3.60	3.54	3.53	3.57	3.75	4.17	4.64	4.83	4.58	4.14	3.89	3.86	4.10	4.47	4.75	4.65	4.32	4.00	3.64	3.32	3.06	2.93	2.76	2.49	2.23	2.08	2.14	2.24	2.19	2.19	2.42	2.72	2.93	2.97	2.88	2.70	2.60	2.59	2.74	3.14	3.84	4.76	5.67	6.67	7.39	7.26	6.28	5.14	4.32	3.70	3.06	2.44	2.11	2.14	2.36	2.68	3.05	3.44	3.75	4.00	4.24	4.55	4.82	4.82	4.35	3.56	3.26	3.26
3.31	3.28	3.32	3.45	3.61	3.81	4.19	4.70	4.92	4.77	4.34	3.86	3.40	2.85	2.27	1.97	2.09	2.53	2.84	3.05	3.26	3.53	3.86	4.21	4.45	4.56	4.52	4.31	4.11	3.97	3.94	3.99	4.07	4.11	4.06	3.83	3.39	2.99	2.80	2.76	2.75	2.80	3.00	3.46	4.33	5.23	5.36	4.65	3.78	3.36	3.23	3.19	3.26	3.41	3.51	3.56	3.54	3.49	3.46	3.54	3.69	3.92	4.23	4.56	4.75	4.57	4.08	3.80	3.85	4.18	4.70	5.06	4.95	4.59	4.40	4.30	4.18	4.05	3.89	3.57	3.10	2.73	2.71	2.70	2.44	2.04	1.91	2.12	2.48	2.78	2.94	2.91	2.78	2.72	2.85	3.24	3.94	4.81	5.49	6.13	6.87	7.15	6.46	5.27	4.41	3.79	3.30	2.96	2.62	2.33	2.26	2.39	2.58	2.74	2.85	3.01	3.26	3.62	4.07	4.44	4.54	4.23	3.67	3.42	3.42
3.27	3.24	3.28	3.42	3.61	3.97	4.52	4.91	4.86	4.47	3.92	3.37	2.87	2.32	2.01	2.18	2.64	3.00	3.18	3.34	3.57	3.84	4.09	4.24	4.28	4.29	4.30	4.26	4.18	4.08	4.00	3.94	3.89	3.86	3.84	3.74	3.38	3.06	2.84	2.77	2.81	3.01	3.29	3.67	4.39	5.09	5.06	4.23	3.28	2.83	2.57	2.39	2.42	2.65	2.95	3.22	3.39	3.46	3.54	3.70	3.87	3.94	4.05	4.37	4.71	4.57	4.01	3.74	3.85	4.23	4.77	5.16	5.01	4.57	4.31	4.32	4.43	4.54	4.49	4.27	4.00	3.84	3.73	3.50	2.99	2.50	2.29	2.37	2.53	2.75	2.94	3.01	3.04	3.17	3.53	4.17	4.87	5.18	5.26	5.65	6.36	6.37	5.35	4.24	3.63	3.21	2.91	2.75	2.62	2.48	2.37	2.31	2.21	2.04	1.97	2.16	2.53	3.03	3.59	4.12	4.42	4.33	3.86	3.56	3.56
3.30	3.31	3.39	3.59	3.89	4.36	4.79	4.86	4.51	3.92	3.29	2.66	2.12	1.80	1.86	2.24	2.62	2.87	3.10	3.34	3.64	3.90	4.00	3.94	3.88	3.98	4.18	4.29	4.17	3.94	3.78	3.66	3.54	3.51	3.58	3.62	3.46	3.25	3.05	3.02	3.17	3.38	3.57	3.87	4.45	4.97	4.87	4.19	3.44	3.00	2.76	2.66	2.83	3.12	3.34	3.43	3.44	3.46	3.56	3.68	3.70	3.62	3.71	4.21	4.69	4.55	3.91	3.66	3.79	4.11	4.60	5.03	4.84	4.21	3.81	3.76	3.96	4.16	4.21	4.20	4.22	4.28	4.24	4.00	3.66	3.37	3.23	3.10	2.95	2.96	3.04	3.18	3.44	3.81	4.29	4.73	4.82	4.52	4.38	4.94	5.78	5.71	4.47	3.49	3.09	2.84	2.62	2.49	2.44	2.41	2.32	2.20	2.10	2.05	2.10	2.24	2.51	2.90	3.46	4.08	4.53	4.50	3.95	3.58	3.58
3.37	3.42	3.54	3.79	4.16	4.57	4.73	4.48	3.89	3.17	2.52	1.94	1.61	1.59	1.81	2.12	2.40	2.65	2.89	3.19	3.48	3.66	3.62	3.54	3.65	3.94	4.20	4.22	3.92	3.51	3.27	3.15	3.14	3.23	3.37	3.48	3.44	3.28	3.14	3.20	3.38	3.57	3.78	4.18	4.69	5.04	4.94	4.52	4.13	3.88	3.69	3.76	3.94	4.06	3.98	3.74	3.53	3.44	3.44	3.42	3.30	3.20	3.39	4.07	4.63	4.50	3.87	3.58	3.61	3.80	4.27	4.73	4.54	3.84	3.32	3.21	3.35	3.47	3.49	3.58	3.74	3.90	3.96	3.94	3.89	3.86	3.79	3.61	3.38	3.23	3.19	3.33	3.64	3.99	4.23	4.15	3.70	3.46	3.80	4.61	5.49	5.36	4.19	3.23	2.88	2.63	2.35	2.19	2.16	2.13	2.01	1.92	1.97	2.21	2.49	2.72	3.01	3.33	3.75	4.38	4.83	4.66	4.02	3.62	3.62
3.46	3.52	3.68	3.96	4.31	4.50	4.35	3.84	3.14	2.48	1.96	1.63	1.59	1.78	2.05	2.30	2.52	2.70	2.87	3.11	3.35	3.43	3.38	3.47	3.76	4.07	4.26	4.18	3.86	3.53	3.29	3.16	3.18	3.21	3.25	3.27	3.26	3.18	3.12	3.28	3.51	3.76	4.10	4.59	5.01	5.21	5.11	4.85	4.65	4.60	4.58	4.54	4.41	4.14	3.79	3.55	3.43	3.33	3.21	3.04	2.85	2.78	3.08	3.91	4.59	4.55	4.01	3.63	3.49	3.55	3.96	4.44	4.32	3.69	3.08	2.87	3.00	3.06	2.96	2.94	3.06	3.22	3.27	3.27	3.29	3.29	3.37	3.38	3.34	3.27	3.25	3.37	3.53	3.58	3.44	3.06	2.85	3.14	4.02	5.01	5.63	5.29	4.38	3.54	3.03	2.57	2.12	1.88	1.82	1.75	1.61	1.55	1.71	2.10	2.47	2.89	3.46	3.91	4.28	4.84	5.16	4.80	4.07	3.68	3.68
3.54	3.60	3.78	4.03	4.20	4.10	3.69	3.08	2.48	2.02	1.73	1.67	1.85	2.17	2.46	2.72	2.92	3.04	3.20	3.43	3.62	3.67	3.67	3.76	3.96	4.26	4.54	4.57	4.42	4.21	3.99	3.87	3.82	3.66	3.32	3.08	3.08	3.15	3.27	3.53	3.81	4.14	4.53	4.94	5.19	5.27	5.17	4.98	4.85	4.83	4.77	4.58	4.22	3.79	3.47	3.37	3.29	3.16	2.95	2.69	2.51	2.54	2.97	3.98	4.75	4.76	4.24	3.75	3.46	3.41	3.73	4.22	4.17	3.57	2.88	2.56	2.65	2.70	2.54	2.47	2.58	2.69	2.61	2.48	2.41	2.42	2.57	2.81	3.00	3.13	3.23	3.29	3.28	3.12	2.90	2.84	3.16	3.83	4.77	5.77	5.94	5.26	4.45	3.84	3.28	2.56	1.97	1.72	1.70	1.69	1.60	1.60	1.91	2.27	2.62	3.12	3.79	4.31	4.74	5.20	5.28	4.79	4.00	3.63	3.63
3.59	3.63	3.74	3.82	3.71	3.35	2.86	2.40	2.03	1.78	1.73	1.89	2.20	2.56	2.93	3.30	3.59	3.81	4.03	4.22	4.33	4.29	4.16	4.05	4.11	4.52	4.95	4.97	4.77	4.53	4.32	4.19	4.02	3.70	3.23	2.96	3.03	3.26	3.56	3.89	4.19	4.48	4.76	4.98	5.09	5.19	5.20	5.08	4.94	4.84	4.61	4.33	4.13	4.00	3.84	3.61	3.32	3.11	2.94	2.78	2.71	2.85	3.37	4.32	4.98	4.88	4.27	3.72	3.37	3.36	3.69	4.07	3.95	3.25	2.50	2.21	2.29	2.32	2.19	2.14	2.21	2.25	2.12	1.99	1.98	2.08	2.29	2.56	2.82	3.04	3.15	3.14	3.09	3.04	3.09	3.39	3.86	4.50	5.32	6.01	5.85	4.96	4.17	3.64	3.13	2.43	1.94	1.78	1.89	2.07	2.19	2.26	2.36	2.53	2.91	3.49	4.06	4.51	4.92	5.21	5.10	4.54	3.74	3.38	3.38
3.62	3.61	3.56	3.41	3.06	2.65	2.29	2.03	1.87	1.86	2.03	2.33	2.71	3.14	3.59	4.03	4.36	4.65	4.85	4.86	4.71	4.43	4.12	3.97	4.16	4.75	5.10	4.84	4.30	3.93	3.70	3.57	3.41	3.17	2.97	2.98	3.19	3.48	3.83	4.14	4.34	4.48	4.56	4.61	4.80	5.07	5.24	5.17	4.96	4.73	4.43	4.19	4.10	4.10	4.01	3.71	3.40	3.17	3.05	2.99	3.03	3.29	3.83	4.60	5.06	4.83	4.14	3.63	3.44	3.60	3.89	3.98	3.63	2.85	2.19	2.07	2.14	2.09	2.04	2.05	2.07	2.03	1.89	1.77	1.86	2.11	2.39	2.63	2.83	2.98	3.05	3.03	3.03	3.08	3.22	3.48	3.88	4.56	5.38	5.73	5.26	4.37	3.73	3.23	2.75	2.34	2.06	2.01	2.19	2.43	2.59	2.63	2.65	2.74	3.08	3.57	4.10	4.58	4.95	5.02	4.74	4.17	3.42	3.16	3.16
3.64	3.57	3.37	3.07	2.76	2.52	2.33	2.18	2.17	2.34	2.60	2.92	3.35	3.84	4.33	4.70	4.94	5.05	4.96	4.69	4.28	3.85	3.65	3.79	4.27	4.91	5.03	4.48	3.81	3.44	3.27	3.22	3.19	3.03	2.97	3.12	3.39	3.65	3.92	4.13	4.21	4.20	4.14	4.18	4.48	4.92	5.23	5.15	4.75	4.27	3.96	3.83	3.79	3.74	3.61	3.47	3.31	3.14	3.01	2.94	3.05	3.43	4.08	4.75	5.03	4.75	4.20	3.83	3.74	3.89	4.03	3.84	3.30	2.68	2.28	2.28	2.25	2.05	2.11	2.27	2.21	2.05	1.92	2.00	2.29	2.55	2.69	2.79	2.88	2.97	3.04	3.05	3.07	3.11	3.20	3.45	3.91	4.65	5.28	5.32	4.68	3.84	3.28	2.79	2.46	2.33	2.24	2.16	2.19	2.25	2.38	2.64	2.95	3.26	3.60	4.07	4.54	4.89	5.03	4.81	4.37	3.78	3.29	3.21	3.21
3.60	3.47	3.20	2.98	2.84	2.73	2.65	2.66	2.83	3.04	3.25	3.55	3.99	4.51	4.92	5.09	5.06	4.82	4.39	3.84	3.34	3.10	3.32	3.83	4.46	5.08	5.06	4.56	4.15	3.96	3.86	3.80	3.64	3.36	3.21	3.27	3.43	3.63	3.81	3.93	3.87	3.71	3.65	3.83	4.21	4.75	5.17	5.04	4.32	3.52	3.12	3.07	3.12	3.10	3.06	3.08	3.08	3.00	2.92	2.93	3.12	3.58	4.21	4.73	4.89	4.65	4.26	3.99	3.87	3.89	3.88	3.56	3.11	2.82	2.73	2.72	2.57	2.31	2.57	2.83	2.71	2.46	2.47	2.91	3.25	3.17	3.03	2.97	2.98	3.04	3.10	3.14	3.20	3.31	3.50	3.84	4.29	4.81	5.21	5.07	4.35	3.51	2.91	2.49	2.25	2.24	2.26	2.15	2.01	1.96	2.16	2.70	3.39	4.04	4.63	5.07	5.25	5.21	4.97	4.49	3.95	3.53	3.46	3.58	3.58
3.48	3.32	3.10	3.02	2.98	2.99	3.06	3.25	3.52	3.75	3.95	4.24	4.68	5.06	5.16	5.01	4.66	4.16	3.58	3.05	2.76	2.88	3.41	4.05	4.76	5.37	5.29	4.93	4.72	4.60	4.45	4.24	3.95	3.63	3.42	3.35	3.37	3.52	3.64	3.60	3.36	3.17	3.27	3.62	4.10	4.74	5.16	4.89	3.91	2.99	2.63	2.53	2.39	2.39	2.56	2.80	2.93	2.94	2.93	3.02	3.29	3.74	4.21	4.57	4.69	4.55	4.21	3.87	3.69	3.68	3.59	3.36	3.24	3.25	3.35	3.37	3.24	3.17	3.60	3.78	3.59	3.42	3.61	4.01	3.94	3.50	3.25	3.16	3.13	3.16	3.20	3.21	3.28	3.44	3.66	3.93	4.31	4.78	5.11	4.93	4.19	3.42	2.88	2.46	2.19	2.08	2.10	2.07	2.00	2.02	2.30	2.95	3.84	4.72	5.28	5.44	5.26	4.93	4.44	3.80	3.40	3.40	3.77	4.07	4.07
3.40	3.28	3.14	3.14	3.24	3.42	3.64	3.89	4.13	4.30	4.48	4.78	5.07	5.14	4.92	4.49	3.98	3.43	2.94	2.65	2.79	3.32	3.95	4.51	5.17	5.60	5.36	4.84	4.56	4.40	4.20	3.98	3.80	3.65	3.47	3.36	3.36	3.39	3.32	3.10	2.92	3.02	3.32	3.74	4.26	4.90	5.19	4.78	3.86	3.14	2.87	2.68	2.37	2.42	2.67	2.88	2.97	3.06	3.14	3.26	3.48	3.85	4.22	4.52	4.65	4.55	4.19	3.82	3.69	3.68	3.59	3.51	3.63	3.75	3.86	3.95	4.09	4.38	4.72	4.75	4.54	4.42	4.51	4.45	3.95	3.44	3.32	3.32	3.28	3.28	3.21	3.20	3.18	3.25	3.37	3.61	4.07	4.68	4.98	4.69	3.93	3.36	3.02	2.66	2.29	2.03	2.03	2.14	2.27	2.52	3.02	3.75	4.49	5.08	5.18	4.81	4.38	3.96	3.45	3.01	2.99	3.42	4.04	4.38	4.38
3.38	3.31	3.23	3.29	3.48	3.74	3.98	4.18	4.32	4.43	4.61	4.83	4.91	4.72	4.31	3.81	3.28	2.80	2.51	2.61	3.16	3.84	4.36	4.83	5.39	5.53	5.03	4.35	3.96	3.76	3.61	3.56	3.56	3.54	3.42	3.32	3.27	3.13	2.92	2.78	2.93	3.33	3.64	3.98	4.47	5.03	5.18	4.70	3.95	3.60	3.48	3.29	3.12	3.12	3.18	3.11	3.08	3.22	3.40	3.55	3.73	4.08	4.41	4.64	4.71	4.58	4.31	4.12	4.11	4.01	3.81	3.75	3.87	3.97	4.04	4.23	4.61	4.99	5.09	4.94	4.72	4.61	4.50	4.08	3.44	3.20	3.29	3.37	3.39	3.38	3.29	3.15	3.03	2.96	3.06	3.40	4.05	4.68	4.82	4.40	3.71	3.24	2.91	2.60	2.35	2.15	2.17	2.40	2.78	3.33	3.99	4.58	4.95	4.98	4.51	3.77	3.33	3.02	2.75	2.74	3.09	3.68	4.28	4.56	4.56
3.32	3.27	3.21	3.30	3.45	3.68	3.86	3.97	4.05	4.17	4.37	4.50	4.41	4.11	3.67	3.16	2.66	2.37	2.46	2.91	3.53	4.07	4.45	4.83	5.23	5.14	4.48	3.84	3.44	3.23	3.16	3.20	3.24	3.26	3.27	3.22	3.11	2.98	2.93	3.09	3.42	3.65	3.80	4.06	4.54	5.02	5.09	4.56	4.00	3.81	3.74	3.63	3.59	3.55	3.34	3.13	3.13	3.32	3.52	3.72	3.98	4.36	4.64	4.76	4.75	4.63	4.49	4.41	4.35	4.11	3.85	3.78	3.85	3.93	4.07	4.32	4.66	4.80	4.62	4.44	4.34	4.22	3.93	3.41	3.08	3.14	3.33	3.41	3.44	3.42	3.31	3.13	2.97	2.91	3.07	3.55	4.25	4.74	4.72	4.28	3.65	3.12	2.66	2.33	2.24	2.25	2.37	2.65	3.14	3.77	4.39	4.75	4.75	4.37	3.67	3.08	2.79	2.65	2.68	3.06	3.62	4.14	4.52	4.63	4.63
3.25	3.22	3.20	3.27	3.35	3.45	3.57	3.63	3.71	3.88	4.08	4.10	3.86	3.47	3.00	2.55	2.36	2.55	3.07	3.59	3.97	4.30	4.53	4.76	4.92	4.63	3.92	3.33	2.95	2.77	2.73	2.69	2.66	2.72	2.83	2.93	3.03	3.15	3.33	3.54	3.65	3.67	3.73	4.00	4.49	4.91	4.91	4.42	3.89	3.61	3.51	3.47	3.47	3.40	3.19	3.10	3.17	3.36	3.59	3.86	4.22	4.60	4.77	4.76	4.69	4.59	4.49	4.35	4.14	3.83	3.67	3.67	3.75	3.86	4.00	4.21	4.38	4.24	4.01	3.99	4.06	4.00	3.77	3.54	3.51	3.62	3.67	3.60	3.49	3.39	3.27	3.15	3.09	3.17	3.44	3.96	4.52	4.78	4.64	4.16	3.51	2.94	2.49	2.24	2.21	2.30	2.47	2.74	3.18	3.74	4.26	4.36	4.04	3.59	3.10	2.72	2.57	2.63	2.99	3.62	4.19	4.64	4.64	4.51	4.51
3.35	3.39	3.45	3.43	3.40	3.38	3.42	3.48	3.60	3.80	3.87	3.67	3.24	2.76	2.37	2.31	2.68	3.31	3.82	4.12	4.34	4.52	4.63	4.73	4.73	4.37	3.72	3.11	2.73	2.61	2.53	2.41	2.35	2.36	2.47	2.72	3.02	3.26	3.40	3.42	3.36	3.36	3.52	3.88	4.40	4.78	4.74	4.23	3.61	3.24	3.11	3.04	3.00	3.01	3.00	3.07	3.19	3.36	3.62	3.93	4.32	4.65	4.72	4.62	4.51	4.44	4.34	4.16	3.92	3.67	3.55	3.56	3.65	3.70	3.74	4.00	4.07	3.86	3.69	3.72	3.81	3.92	3.99	4.07	4.17	4.19	4.05	3.80	3.54	3.37	3.25	3.18	3.22	3.42	3.78	4.26	4.64	4.70	4.42	3.84	3.11	2.62	2.40	2.30	2.27	2.32	2.46	2.74	3.23	3.72	3.93	3.68	3.23	2.96	2.67	2.45	2.51	2.88	3.53	4.23	4.71	4.95	4.59	4.18	4.18
3.56	3.64	3.69	3.62	3.52	3.45	3.46	3.53	3.64	3.67	3.43	2.97	2.45	2.04	1.99	2.34	2.97	3.59	3.98	4.23	4.41	4.51	4.58	4.72	4.73	4.39	3.86	3.41	3.19	3.17	3.13	2.99	2.92	2.87	2.89	3.04	3.15	3.19	3.18	3.09	3.00	3.08	3.42	3.91	4.43	4.74	4.60	4.03	3.39	3.05	2.91	2.68	2.47	2.45	2.57	2.84	3.13	3.34	3.61	3.94	4.31	4.50	4.47	4.35	4.31	4.31	4.25	4.11	3.92	3.71	3.55	3.50	3.53	3.56	3.67	3.85	3.83	3.66	3.54	3.46	3.42	3.49	3.65	3.84	3.97	3.99	3.90	3.72	3.51	3.37	3.26	3.21	3.27	3.53	3.94	4.38	4.59	4.50	4.11	3.48	2.87	2.52	2.39	2.35	2.29	2.25	2.36	2.67	3.14	3.44	3.35	2.96	2.68	2.53	2.38	2.43	2.83	3.54	4.32	4.85	5.09	4.93	4.28	3.77	3.77
3.63	3.62	3.59	3.55	3.49	3.43	3.44	3.48	3.43	3.15	2.63	2.16	1.88	1.82	2.13	2.69	3.21	3.54	3.74	3.97	4.12	4.22	4.43	4.78	4.83	4.49	4.19	4.14	4.20	4.23	4.17	4.06	3.93	3.75	3.62	3.50	3.33	3.20	3.12	3.00	2.92	3.09	3.62	4.18	4.61	4.75	4.49	3.91	3.38	3.09	2.81	2.39	2.13	2.20	2.46	2.86	3.21	3.46	3.74	4.04	4.25	4.25	4.13	4.13	4.22	4.29	4.24	4.12	3.97	3.78	3.62	3.53	3.52	3.55	3.60	3.60	3.59	3.55	3.44	3.26	3.02	2.88	2.93	3.05	3.16	3.27	3.37	3.42	3.41	3.37	3.32	3.36	3.56	3.89	4.24	4.48	4.49	4.29	3.93	3.50	3.09	2.76	2.50	2.35	2.24	2.17	2.23	2.48	2.80	2.93	2.84	2.70	2.63	2.61	2.67	3.00	3.66	4.44	4.99	5.19	5.10	4.63	3.88	3.49	3.49
3.55	3.41	3.32	3.33	3.29	3.23	3.18	3.10	2.88	2.51	2.17	2.02	2.06	2.36	3.01	3.61	3.81	3.79	3.71	3.75	3.88	4.07	4.53	4.98	4.90	4.57	4.50	4.63	4.73	4.74	4.65	4.49	4.29	4.07	3.85	3.61	3.38	3.23	3.10	2.99	3.02	3.37	3.96	4.44	4.69	4.70	4.38	3.83	3.38	3.01	2.56	2.24	2.37	2.79	3.17	3.39	3.53	3.70	3.91	4.08	4.08	3.95	3.93	4.09	4.26	4.31	4.25	4.15	4.05	3.94	3.79	3.66	3.56	3.45	3.30	3.23	3.38	3.51	3.41	3.15	2.81	2.68	2.76	2.83	2.86	2.94	3.08	3.26	3.39	3.44	3.49	3.67	4.00	4.30	4.46	4.45	4.31	4.10	3.88	3.62	3.28	2.92	2.58	2.36	2.27	2.24	2.31	2.52	2.75	2.87	2.96	3.04	3.12	3.26	3.54	3.99	4.58	5.01	5.14	5.02	4.70	4.15	3.56	3.35	3.35
3.47	3.33	3.19	3.16	3.10	3.03	2.94	2.81	2.62	2.46	2.53	2.80	3.18	3.77	4.43	4.76	4.76	4.51	4.23	4.21	4.35	4.63	5.09	5.23	4.90	4.55	4.54	4.58	4.51	4.43	4.33	4.20	4.09	3.95	3.79	3.60	3.42	3.25	3.07	3.01	3.24	3.76	4.24	4.46	4.58	4.59	4.29	3.76	3.31	2.91	2.61	2.74	3.28	3.78	3.90	3.77	3.67	3.77	3.92	3.94	3.85	3.80	3.90	4.06	4.19	4.21	4.17	4.15	4.11	4.05	3.91	3.72	3.52	3.30	3.07	3.03	3.31	3.52	3.43	3.21	3.08	3.17	3.34	3.30	3.18	3.13	3.15	3.28	3.44	3.53	3.63	3.81	4.03	4.18	4.17	4.08	3.98	3.91	3.83	3.58	3.16	2.83	2.59	2.45	2.41	2.47	2.73	3.11	3.37	3.51	3.62	3.68	3.76	3.95	4.24	4.59	4.85	4.88	4.71	4.47	4.18	3.78	3.46	3.35	3.35
3.45	3.35	3.19	3.11	3.08	3.10	3.14	3.15	3.14	3.28	3.67	4.17	4.72	5.21	5.47	5.42	5.25	5.10	5.09	5.18	5.31	5.47	5.57	5.31	4.79	4.45	4.41	4.32	4.04	3.78	3.63	3.59	3.59	3.59	3.58	3.56	3.51	3.34	3.18	3.21	3.51	3.86	4.07	4.19	4.41	4.57	4.35	3.87	3.49	3.27	3.31	3.70	4.15	4.33	4.10	3.77	3.70	3.80	3.85	3.79	3.78	3.82	3.85	3.87	3.96	3.99	3.99	4.06	4.06	3.97	3.84	3.65	3.44	3.22	3.03	3.06	3.38	3.57	3.51	3.44	3.52	3.71	3.81	3.73	3.56	3.40	3.27	3.31	3.43	3.53	3.64	3.74	3.79	3.77	3.69	3.63	3.66	3.73	3.68	3.33	2.86	2.65	2.62	2.58	2.59	2.80	3.35	3.86	4.10	4.15	4.11	4.00	3.93	3.99	4.14	4.25	4.23	4.11	4.02	4.02	3.99	3.81	3.53	3.40	3.40
3.48	3.40	3.28	3.21	3.25	3.37	3.56	3.75	4.02	4.42	4.90	5.33	5.61	5.68	5.54	5.19	4.90	4.98	5.22	5.42	5.57	5.61	5.49	5.09	4.56	4.29	4.30	4.16	3.80	3.45	3.21	3.11	3.11	3.17	3.27	3.38	3.42	3.34	3.27	3.26	3.32	3.40	3.50	3.83	4.43	4.75	4.54	4.13	3.84	3.83	4.06	4.41	4.62	4.56	4.28	4.05	4.02	3.98	3.87	3.79	3.79	3.76	3.67	3.68	3.79	3.81	3.82	3.93	3.97	3.86	3.69	3.50	3.34	3.16	3.05	3.16	3.43	3.57	3.59	3.64	3.72	3.81	3.80	3.67	3.54	3.42	3.28	3.28	3.36	3.44	3.53	3.60	3.60	3.54	3.46	3.42	3.47	3.55	3.44	3.04	2.67	2.63	2.67	2.69	2.81	3.25	3.88	4.19	4.20	4.06	3.84	3.58	3.42	3.43	3.50	3.50	3.48	3.61	3.86	4.11	4.19	3.98	3.61	3.42	3.42
3.54	3.50	3.43	3.42	3.50	3.64	3.86	4.20	4.69	5.17	5.49	5.59	5.48	5.23	4.86	4.42	4.21	4.39	4.64	4.91	5.14	5.23	5.11	4.74	4.28	4.12	4.21	4.10	3.76	3.50	3.34	3.23	3.23	3.28	3.31	3.29	3.23	3.21	3.17	3.04	2.93	3.02	3.41	4.06	4.78	5.02	4.74	4.32	4.10	4.16	4.40	4.67	4.81	4.75	4.65	4.55	4.45	4.24	4.01	3.86	3.74	3.60	3.55	3.63	3.71	3.67	3.73	3.91	3.99	3.88	3.59	3.32	3.20	3.09	3.06	3.20	3.40	3.54	3.68	3.79	3.84	3.85	3.75	3.56	3.42	3.33	3.25	3.25	3.28	3.30	3.33	3.34	3.36	3.35	3.32	3.29	3.31	3.38	3.29	3.01	2.78	2.76	2.80	2.89	3.20	3.74	4.04	3.98	3.69	3.36	3.03	2.85	2.93	3.14	3.30	3.46	3.72	4.08	4.45	4.63	4.50	4.12	3.64	3.42	3.42
3.59	3.54	3.52	3.61	3.74	3.92	4.23	4.67	5.14	5.37	5.34	5.13	4.83	4.51	4.18	3.85	3.73	3.90	4.12	4.44	4.80	4.95	4.87	4.48	4.07	4.02	4.11	3.92	3.59	3.49	3.54	3.61	3.65	3.63	3.54	3.38	3.20	3.12	3.06	2.97	3.02	3.38	3.95	4.66	5.20	5.23	4.82	4.35	4.13	4.16	4.39	4.65	4.80	4.79	4.76	4.73	4.58	4.32	4.07	3.85	3.65	3.53	3.50	3.53	3.49	3.51	3.76	4.03	4.10	3.89	3.46	3.17	3.09	3.01	3.00	3.12	3.29	3.49	3.72	3.92	4.00	3.95	3.77	3.59	3.50	3.41	3.29	3.25	3.23	3.19	3.16	3.11	3.07	3.05	3.04	3.04	3.15	3.30	3.30	3.11	2.94	2.87	2.93	3.17	3.57	3.85	3.76	3.43	3.03	2.70	2.57	2.71	3.05	3.44	3.83	4.26	4.69	5.02	5.15	5.03	4.65	4.16	3.63	3.38	3.38
3.57	3.52	3.57	3.75	3.93	4.19	4.59	4.99	5.17	5.06	4.77	4.47	4.20	3.97	3.71	3.45	3.39	3.60	3.92	4.29	4.68	4.94	4.80	4.26	3.91	4.00	4.03	3.76	3.49	3.42	3.45	3.50	3.51	3.51	3.48	3.39	3.25	3.12	3.09	3.17	3.42	3.84	4.40	5.10	5.49	5.30	4.73	4.16	3.91	3.99	4.24	4.52	4.61	4.50	4.41	4.36	4.25	4.08	3.90	3.74	3.59	3.45	3.35	3.27	3.27	3.46	3.87	4.14	4.11	3.75	3.28	3.08	3.01	2.91	2.87	2.94	3.10	3.33	3.66	4.00	4.09	3.90	3.67	3.56	3.50	3.38	3.27	3.24	3.21	3.16	3.08	2.99	2.89	2.81	2.76	2.83	3.11	3.37	3.40	3.25	3.07	2.96	3.02	3.24	3.48	3.45	3.17	2.84	2.59	2.58	2.81	3.17	3.62	4.11	4.67	5.19	5.52	5.62	5.46	5.08	4.60	4.07	3.52	3.30	3.30
3.55	3.54	3.62	3.80	3.98	4.26	4.66	4.85	4.72	4.41	4.09	3.79	3.55	3.36	3.15	3.06	3.27	3.64	3.97	4.32	4.80	5.08	4.73	4.08	3.94	4.11	4.04	3.81	3.63	3.49	3.36	3.20	3.10	3.13	3.19	3.20	3.18	3.16	3.19	3.33	3.60	4.01	4.63	5.32	5.53	5.14	4.45	3.86	3.68	3.83	4.12	4.35	4.31	4.03	3.78	3.67	3.62	3.62	3.66	3.64	3.52	3.34	3.17	3.10	3.22	3.54	3.97	4.16	3.98	3.53	3.18	3.00	2.86	2.78	2.78	2.83	2.96	3.18	3.58	4.04	4.05	3.65	3.40	3.32	3.18	3.06	3.09	3.19	3.22	3.17	3.06	2.94	2.84	2.77	2.77	2.94	3.24	3.50	3.55	3.39	3.20	3.08	3.07	3.11	3.10	2.92	2.73	2.70	2.86	3.13	3.49	3.89	4.33	4.86	5.39	5.75	5.88	5.75	5.37	4.86	4.34	3.81	3.35	3.22	3.22
3.61	3.62	3.69	3.80	3.95	4.20	4.44	4.37	4.01	3.62	3.31	3.03	2.80	2.65	2.70	3.03	3.57	4.04	4.34	4.67	5.06	5.06	4.48	3.98	4.06	4.17	4.02	3.83	3.72	3.63	3.51	3.34	3.18	3.07	2.94	2.85	2.92	3.10	3.23	3.37	3.69	4.14	4.78	5.32	5.29	4.71	4.05	3.61	3.52	3.74	4.08	4.25	4.10	3.73	3.37	3.09	3.00	3.14	3.36	3.46	3.42	3.32	3.23	3.22	3.34	3.64	4.03	4.10	3.80	3.40	3.14	2.95	2.78	2.71	2.71	2.76	2.88	3.11	3.53	4.01	3.90	3.34	3.09	2.93	2.76	2.79	2.99	3.17	3.22	3.17	3.07	2.99	2.95	2.96	3.04	3.20	3.43	3.67	3.70	3.52	3.31	3.19	3.11	3.03	2.94	2.88	2.94	3.22	3.60	3.94	4.26	4.61	4.96	5.32	5.64	5.80	5.74	5.44	4.95	4.43	3.99	3.54	3.22	3.16	3.16
3.73	3.75	3.80	3.86	3.95	4.04	4.07	3.84	3.40	3.02	2.78	2.59	2.47	2.56	3.02	3.71	4.31	4.68	4.88	5.03	5.03	4.67	4.01	3.76	3.90	3.92	3.75	3.66	3.68	3.73	3.74	3.67	3.55	3.29	2.97	2.80	2.91	3.13	3.33	3.57	3.92	4.34	4.82	5.11	4.88	4.29	3.77	3.46	3.44	3.73	4.16	4.28	4.07	3.73	3.35	2.98	2.84	2.93	3.09	3.22	3.30	3.33	3.35	3.38	3.49	3.76	4.01	3.96	3.66	3.35	3.12	2.93	2.79	2.69	2.64	2.67	2.82	3.09	3.52	3.93	3.76	3.26	2.97	2.75	2.72	2.94	3.14	3.22	3.22	3.19	3.14	3.11	3.14	3.19	3.23	3.35	3.62	3.86	3.85	3.61	3.35	3.21	3.13	3.07	3.04	3.14	3.43	3.83	4.18	4.48	4.72	4.90	5.06	5.26	5.44	5.46	5.24	4.75	4.23	3.89	3.64	3.37	3.20	3.17	3.17
3.85	3.86	3.88	3.91	3.90	3.84	3.72	3.49	3.23	3.08	3.02	2.99	3.12	3.55	4.21	4.85	5.18	5.18	5.07	4.89	4.57	4.16	3.77	3.62	3.62	3.53	3.41	3.43	3.56	3.66	3.70	3.72	3.70	3.60	3.47	3.40	3.39	3.43	3.55	3.76	4.01	4.32	4.68	4.82	4.52	4.06	3.69	3.43	3.48	3.88	4.29	4.34	4.10	3.83	3.59	3.40	3.25	3.21	3.20	3.21	3.23	3.27	3.31	3.37	3.53	3.78	3.91	3.80	3.55	3.28	3.05	2.86	2.75	2.67	2.61	2.65	2.82	3.11	3.54	3.90	3.86	3.51	3.21	3.10	3.28	3.50	3.41	3.29	3.26	3.24	3.20	3.20	3.24	3.26	3.30	3.50	3.82	4.00	3.90	3.62	3.31	3.17	3.12	3.13	3.19	3.37	3.66	4.01	4.28	4.43	4.48	4.46	4.53	4.81	5.06	5.04	4.68	4.15	3.77	3.57	3.40	3.26	3.21	3.20	3.20
3.94	3.90	3.87	3.87	3.81	3.69	3.56	3.46	3.41	3.49	3.65	3.92	4.33	4.82	5.26	5.46	5.30	4.94	4.62	4.27	3.98	3.87	3.81	3.71	3.58	3.40	3.21	3.20	3.36	3.43	3.40	3.46	3.55	3.65	3.76	3.79	3.71	3.59	3.55	3.61	3.80	4.13	4.49	4.60	4.32	3.97	3.69	3.51	3.65	4.04	4.31	4.25	4.03	3.86	3.80	3.79	3.79	3.76	3.65	3.46	3.31	3.23	3.22	3.26	3.43	3.64	3.67	3.59	3.46	3.24	3.01	2.80	2.69	2.64	2.63	2.69	2.90	3.21	3.62	4.05	4.18	3.98	3.76	3.81	3.98	3.92	3.55	3.36	3.31	3.24	3.20	3.20	3.24	3.30	3.41	3.68	3.95	4.01	3.84	3.53	3.24	3.13	3.11	3.15	3.26	3.47	3.70	3.86	3.90	3.79	3.60	3.56	3.85	4.39	4.78	4.77	4.43	4.06	3.81	3.58	3.36	3.22	3.18	3.19	3.19
3.97	3.89	3.82	3.81	3.76	3.67	3.60	3.57	3.59	3.74	4.10	4.59	5.03	5.31	5.38	5.14	4.60	4.17	3.95	3.67	3.62	3.80	3.91	3.89	3.77	3.50	3.19	3.10	3.24	3.27	3.17	3.19	3.26	3.38	3.49	3.53	3.49	3.40	3.35	3.41	3.64	4.04	4.42	4.46	4.14	3.84	3.71	3.64	3.78	4.04	4.17	4.08	3.89	3.80	3.82	3.86	3.94	3.97	3.87	3.66	3.42	3.24	3.12	3.10	3.20	3.31	3.31	3.43	3.50	3.34	3.07	2.84	2.72	2.66	2.67	2.79	3.02	3.33	3.80	4.31	4.46	4.28	4.14	4.21	4.18	3.87	3.48	3.33	3.24	3.16	3.16	3.20	3.25	3.34	3.49	3.75	3.96	3.94	3.74	3.46	3.22	3.12	3.09	3.10	3.15	3.28	3.39	3.38	3.22	3.01	2.96	3.17	3.69	4.33	4.74	4.72	4.41	4.08	3.77	3.47	3.26	3.10	3.08	3.12	3.12
3.95	3.88	3.81	3.80	3.77	3.73	3.69	3.67	3.76	4.04	4.51	4.92	5.10	5.07	4.83	4.37	3.94	3.73	3.52	3.32	3.41	3.68	3.88	3.92	3.78	3.49	3.24	3.18	3.29	3.30	3.21	3.15	3.11	3.09	3.10	3.14	3.19	3.23	3.30	3.42	3.69	4.08	4.39	4.28	3.88	3.67	3.74	3.78	3.86	3.99	4.06	3.98	3.88	3.85	3.85	3.82	3.82	3.77	3.66	3.55	3.41	3.21	3.03	2.94	2.93	2.98	3.17	3.54	3.69	3.48	3.18	2.95	2.82	2.72	2.70	2.84	3.08	3.39	3.94	4.45	4.53	4.24	4.04	3.98	3.77	3.49	3.32	3.24	3.16	3.10	3.14	3.23	3.31	3.40	3.56	3.81	3.97	3.87	3.67	3.44	3.18	3.06	3.03	3.03	3.02	3.05	3.04	2.95	2.84	2.87	3.13	3.51	4.02	4.56	4.88	4.79	4.41	3.93	3.53	3.26	3.09	2.95	2.98	3.05	3.05
3.93	3.90	3.87	3.84	3.81	3.79	3.77	3.81	4.01	4.43	4.82	4.95	4.83	4.62	4.30	3.93	3.69	3.51	3.25	3.12	3.25	3.52	3.84	3.92	3.66	3.34	3.22	3.27	3.37	3.39	3.33	3.23	3.10	2.99	2.89	2.88	3.02	3.20	3.35	3.51	3.78	4.13	4.31	4.03	3.56	3.51	3.75	3.86	3.89	3.96	4.02	4.02	4.02	4.01	3.90	3.75	3.60	3.45	3.34	3.28	3.21	3.09	2.95	2.86	2.90	3.11	3.48	3.82	3.81	3.49	3.18	2.98	2.85	2.72	2.67	2.77	2.99	3.36	3.97	4.47	4.48	4.15	3.86	3.63	3.34	3.17	3.13	3.15	3.13	3.09	3.13	3.23	3.33	3.44	3.63	3.86	3.93	3.77	3.55	3.30	3.04	2.95	2.99	3.06	3.13	3.21	3.26	3.23	3.29	3.55	3.90	4.16	4.45	4.81	5.00	4.83	4.40	3.93	3.59	3.32	3.10	2.99	3.02	3.07	3.07
4.00	4.01	3.98	3.90	3.84	3.85	3.89	4.01	4.31	4.71	4.89	4.77	4.56	4.36	4.11	3.83	3.58	3.33	3.14	3.19	3.42	3.72	4.00	3.98	3.65	3.33	3.21	3.25	3.35	3.39	3.35	3.30	3.21	3.05	2.86	2.79	2.94	3.15	3.31	3.51	3.82	4.14	4.14	3.68	3.21	3.32	3.69	3.84	3.84	3.88	3.99	4.08	4.06	3.94	3.73	3.52	3.36	3.24	3.13	3.03	2.96	2.93	2.93	3.00	3.21	3.50	3.79	3.92	3.76	3.40	3.08	2.89	2.76	2.66	2.63	2.73	2.99	3.46	4.07	4.44	4.40	4.10	3.78	3.48	3.23	3.11	3.05	3.06	3.08	3.09	3.14	3.22	3.31	3.42	3.56	3.71	3.69	3.55	3.36	3.13	2.94	2.92	3.03	3.17	3.34	3.54	3.75	3.94	4.21	4.47	4.60	4.64	4.75	4.97	5.03	4.79	4.38	3.98	3.67	3.37	3.16	3.07	3.09	3.12	3.12
4.11	4.09	4.02	3.91	3.86	3.89	4.01	4.22	4.58	4.80	4.76	4.57	4.40	4.24	3.97	3.64	3.41	3.29	3.36	3.59	3.82	3.99	4.09	3.98	3.68	3.40	3.23	3.23	3.29	3.32	3.31	3.29	3.24	3.12	2.98	2.95	3.04	3.14	3.24	3.48	3.83	4.03	3.76	3.15	2.83	3.09	3.56	3.81	3.81	3.78	3.87	3.92	3.81	3.61	3.40	3.22	3.13	3.11	3.05	2.93	2.88	2.89	2.94	3.08	3.31	3.56	3.76	3.84	3.68	3.36	3.04	2.82	2.68	2.61	2.63	2.83	3.20	3.64	4.01	4.25	4.25	4.03	3.68	3.37	3.23	3.20	3.13	3.05	3.06	3.12	3.19	3.26	3.31	3.37	3.44	3.48	3.42	3.27	3.14	3.08	3.06	3.08	3.16	3.27	3.44	3.68	4.01	4.38	4.67	4.72	4.64	4.64	4.79	4.96	4.95	4.73	4.35	3.91	3.56	3.31	3.17	3.12	3.13	3.15	3.15
4.11	4.05	3.94	3.87	3.85	3.93	4.08	4.31	4.56	4.64	4.49	4.32	4.21	3.99	3.59	3.35	3.36	3.49	3.64	3.74	3.76	3.80	3.93	3.98	3.79	3.48	3.24	3.19	3.21	3.22	3.24	3.22	3.14	3.09	3.14	3.22	3.24	3.22	3.26	3.49	3.74	3.64	3.04	2.52	2.53	2.91	3.43	3.81	3.83	3.67	3.66	3.60	3.43	3.25	3.07	2.94	2.93	2.95	2.90	2.86	2.88	2.91	2.92	2.99	3.20	3.46	3.68	3.78	3.65	3.31	2.99	2.79	2.66	2.57	2.64	2.92	3.27	3.51	3.69	3.97	4.14	4.01	3.60	3.25	3.13	3.11	3.04	3.01	3.07	3.15	3.23	3.30	3.32	3.33	3.33	3.28	3.14	2.97	2.97	3.14	3.25	3.30	3.34	3.41	3.58	3.82	4.10	4.31	4.33	4.12	4.05	4.33	4.65	4.82	4.83	4.66	4.29	3.85	3.54	3.33	3.22	3.16	3.14	3.15	3.15
4.09	4.04	3.95	3.88	3.87	3.95	4.09	4.24	4.34	4.29	4.12	3.99	3.89	3.56	3.21	3.28	3.48	3.55	3.49	3.36	3.30	3.50	3.88	4.07	3.84	3.48	3.27	3.18	3.15	3.13	3.15	3.17	3.12	3.13	3.24	3.30	3.27	3.23	3.25	3.38	3.37	2.92	2.38	2.27	2.52	2.90	3.38	3.84	3.86	3.68	3.60	3.49	3.30	3.10	2.89	2.81	2.86	2.83	2.76	2.82	2.90	2.91	2.94	3.11	3.41	3.65	3.75	3.75	3.53	3.13	2.86	2.72	2.60	2.52	2.63	2.90	3.17	3.30	3.48	3.86	4.13	3.98	3.52	3.14	3.01	2.94	2.86	2.90	3.05	3.18	3.27	3.34	3.34	3.30	3.23	3.12	2.96	2.88	3.02	3.28	3.43	3.48	3.52	3.58	3.70	3.81	3.89	3.87	3.71	3.55	3.72	4.19	4.52	4.63	4.65	4.50	4.09	3.67	3.42	3.29	3.24	3.19	3.17	3.17	3.17
4.21	4.20	4.11	3.97	3.91	3.94	4.04	4.10	4.08	3.99	3.87	3.78	3.59	3.24	3.15	3.34	3.41	3.24	3.01	2.90	3.07	3.54	4.07	4.20	3.86	3.48	3.34	3.28	3.18	3.09	3.09	3.16	3.18	3.15	3.13	3.07	3.03	3.05	3.11	3.09	2.85	2.47	2.40	2.64	2.91	3.13	3.52	3.92	3.96	3.81	3.69	3.54	3.36	3.17	3.00	2.94	2.95	2.91	2.89	2.94	2.93	2.92	3.05	3.37	3.66	3.73	3.67	3.59	3.34	2.99	2.75	2.58	2.46	2.47	2.62	2.85	3.08	3.25	3.50	3.87	4.07	3.89	3.52	3.29	3.17	3.04	2.90	2.93	3.12	3.27	3.37	3.41	3.38	3.30	3.21	3.13	3.09	3.14	3.30	3.50	3.58	3.60	3.60	3.60	3.56	3.49	3.45	3.43	3.46	3.63	3.96	4.24	4.33	4.38	4.46	4.34	3.93	3.53	3.30	3.22	3.21	3.21	3.20	3.20	3.20
4.37	4.28	4.08	3.91	3.85	3.88	3.94	3.94	3.87	3.81	3.77	3.64	3.34	3.07	3.06	3.12	3.02	2.84	2.75	2.89	3.28	3.84	4.33	4.31	3.85	3.49	3.40	3.31	3.17	3.07	3.11	3.22	3.21	3.07	2.92	2.83	2.84	2.92	2.94	2.83	2.69	2.72	2.93	3.16	3.31	3.50	3.80	4.07	4.09	3.90	3.67	3.49	3.38	3.29	3.19	3.14	3.14	3.12	3.08	3.03	2.96	2.98	3.13	3.38	3.46	3.38	3.37	3.41	3.26	2.97	2.68	2.44	2.33	2.44	2.62	2.81	2.98	3.16	3.42	3.72	3.92	3.93	3.83	3.67	3.40	3.07	2.94	3.11	3.32	3.42	3.47	3.46	3.40	3.33	3.28	3.29	3.35	3.45	3.54	3.65	3.66	3.58	3.50	3.41	3.25	3.12	3.14	3.27	3.45	3.68	3.82	3.85	3.91	4.17	4.44	4.36	4.00	3.66	3.40	3.26	3.21	3.20	3.20	3.20	3.20
4.32	4.08	3.71	3.62	3.66	3.76	3.83	3.81	3.74	3.68	3.59	3.38	3.09	2.90	2.89	2.88	2.85	2.85	3.04	3.44	3.84	4.23	4.49	4.23	3.64	3.37	3.30	3.15	3.03	3.06	3.19	3.28	3.24	3.09	2.95	2.94	3.00	3.00	2.92	2.87	2.96	3.10	3.22	3.34	3.51	3.75	4.03	4.22	4.17	3.93	3.69	3.54	3.46	3.39	3.28	3.24	3.26	3.22	3.11	2.99	2.94	2.98	3.08	3.14	3.10	3.09	3.27	3.44	3.30	2.92	2.53	2.33	2.33	2.47	2.67	2.85	3.00	3.17	3.36	3.59	3.92	4.21	4.21	3.83	3.24	2.88	3.03	3.40	3.54	3.53	3.49	3.43	3.39	3.35	3.36	3.41	3.46	3.51	3.60	3.68	3.64	3.46	3.29	3.13	2.97	2.87	2.92	3.08	3.24	3.36	3.40	3.45	3.76	4.33	4.65	4.49	4.07	3.67	3.41	3.28	3.23	3.21	3.21	3.21	3.21
4.02	3.72	3.37	3.35	3.51	3.68	3.76	3.74	3.66	3.54	3.38	3.17	2.97	2.93	3.04	3.14	3.26	3.48	3.84	4.16	4.33	4.43	4.34	3.90	3.44	3.28	3.13	2.95	2.93	3.05	3.20	3.27	3.25	3.19	3.20	3.27	3.29	3.19	3.07	3.05	3.10	3.14	3.22	3.43	3.69	3.97	4.24	4.34	4.22	4.03	3.86	3.75	3.66	3.52	3.33	3.26	3.24	3.16	3.05	2.97	2.90	2.92	2.95	2.94	2.95	3.14	3.45	3.53	3.18	2.61	2.30	2.30	2.41	2.55	2.75	2.99	3.21	3.41	3.54	3.75	4.17	4.49	4.28	3.58	2.95	2.89	3.40	3.76	3.67	3.48	3.39	3.36	3.35	3.34	3.35	3.38	3.40	3.44	3.55	3.63	3.56	3.35	3.10	2.89	2.73	2.63	2.65	2.78	2.99	3.23	3.44	3.77	4.35	4.86	4.91	4.51	3.94	3.48	3.27	3.20	3.22	3.25	3.24	3.22	3.22
3.77	3.60	3.39	3.46	3.66	3.78	3.77	3.70	3.60	3.47	3.34	3.21	3.14	3.27	3.53	3.75	3.97	4.20	4.35	4.37	4.28	4.16	3.95	3.64	3.42	3.27	3.04	2.90	2.95	3.08	3.17	3.21	3.24	3.28	3.32	3.32	3.27	3.19	3.12	3.08	3.04	3.06	3.25	3.58	3.92	4.19	4.35	4.32	4.16	4.02	3.88	3.77	3.68	3.54	3.35	3.28	3.21	3.06	2.99	2.95	2.90	2.89	2.88	2.91	3.07	3.38	3.58	3.36	2.74	2.25	2.18	2.32	2.48	2.65	2.86	3.09	3.32	3.57	3.81	4.09	4.45	4.57	4.11	3.38	3.13	3.48	4.02	4.10	3.77	3.46	3.35	3.31	3.29	3.28	3.29	3.33	3.36	3.42	3.53	3.59	3.50	3.24	2.93	2.69	2.50	2.39	2.50	2.81	3.19	3.60	4.04	4.58	5.12	5.27	4.95	4.34	3.74	3.39	3.23	3.20	3.25	3.28	3.24	3.21	3.21
3.76	3.76	3.81	3.97	4.08	4.00	3.81	3.68	3.58	3.48	3.42	3.41	3.49	3.71	3.95	4.11	4.23	4.28	4.19	3.97	3.72	3.55	3.51	3.51	3.45	3.28	3.10	3.05	3.14	3.22	3.21	3.23	3.31	3.36	3.28	3.11	3.04	3.06	3.08	3.05	3.02	3.11	3.42	3.79	4.09	4.25	4.23	4.07	3.90	3.78	3.67	3.65	3.65	3.54	3.37	3.31	3.26	3.11	3.00	2.96	2.93	2.91	2.91	3.01	3.28	3.53	3.46	2.97	2.38	2.18	2.27	2.42	2.56	2.78	3.05	3.24	3.38	3.59	3.88	4.24	4.58	4.63	4.25	3.89	4.00	4.33	4.44	4.19	3.79	3.50	3.38	3.30	3.26	3.25	3.27	3.31	3.36	3.43	3.51	3.54	3.38	3.03	2.74	2.55	2.39	2.32	2.56	3.02	3.62	4.27	4.90	5.39	5.57	5.29	4.68	4.03	3.61	3.43	3.35	3.32	3.33	3.27	3.21	3.19	3.19
3.87	3.97	4.16	4.31	4.29	4.08	3.82	3.64	3.54	3.49	3.50	3.59	3.75	3.93	4.02	4.01	3.98	3.90	3.68	3.35	3.06	3.01	3.24	3.54	3.56	3.38	3.29	3.33	3.40	3.41	3.40	3.45	3.54	3.49	3.30	3.10	3.06	3.10	3.10	3.08	3.15	3.39	3.71	3.97	4.11	4.09	3.91	3.69	3.58	3.59	3.67	3.75	3.72	3.55	3.37	3.35	3.33	3.21	3.09	3.04	3.00	2.97	3.00	3.14	3.37	3.44	3.16	2.63	2.33	2.33	2.46	2.59	2.73	2.96	3.21	3.39	3.53	3.71	3.96	4.34	4.77	4.90	4.71	4.54	4.54	4.50	4.26	3.87	3.54	3.41	3.34	3.28	3.25	3.26	3.28	3.32	3.37	3.42	3.47	3.43	3.16	2.80	2.60	2.50	2.46	2.55	2.98	3.49	4.19	4.99	5.54	5.72	5.50	4.89	4.21	3.72	3.51	3.48	3.43	3.39	3.34	3.21	3.14	3.16	3.16
4.01	4.09	4.25	4.32	4.24	4.07	3.85	3.66	3.57	3.53	3.56	3.66	3.79	3.85	3.80	3.75	3.71	3.53	3.18	2.84	2.73	2.91	3.37	3.76	3.75	3.57	3.51	3.55	3.57	3.56	3.62	3.73	3.76	3.63	3.42	3.28	3.26	3.27	3.20	3.19	3.34	3.59	3.79	3.92	3.97	3.84	3.59	3.40	3.40	3.64	3.91	3.96	3.76	3.53	3.38	3.39	3.39	3.31	3.21	3.11	3.06	3.04	3.08	3.18	3.29	3.21	2.84	2.50	2.41	2.50	2.62	2.74	2.92	3.14	3.29	3.45	3.67	3.96	4.29	4.71	5.15	5.15	4.79	4.45	4.23	3.99	3.65	3.34	3.20	3.20	3.23	3.26	3.30	3.32	3.33	3.35	3.37	3.39	3.39	3.29	3.01	2.75	2.62	2.58	2.66	2.95	3.55	4.22	4.94	5.54	5.77	5.57	5.02	4.32	3.76	3.45	3.41	3.43	3.35	3.31	3.28	3.15	3.11	3.14	3.14
4.18	4.25	4.37	4.40	4.32	4.12	3.93	3.81	3.74	3.66	3.61	3.62	3.66	3.66	3.66	3.68	3.58	3.27	2.93	2.84	2.99	3.29	3.72	4.00	3.93	3.75	3.67	3.67	3.64	3.64	3.72	3.82	3.80	3.67	3.53	3.50	3.52	3.51	3.41	3.37	3.46	3.56	3.68	3.83	3.84	3.64	3.43	3.34	3.47	3.87	4.19	4.10	3.78	3.55	3.44	3.43	3.43	3.34	3.21	3.11	3.06	3.06	3.09	3.15	3.18	3.05	2.75	2.57	2.58	2.67	2.77	2.86	3.03	3.23	3.40	3.61	3.85	4.19	4.66	5.14	5.31	4.98	4.34	3.89	3.65	3.41	3.13	2.95	2.96	3.08	3.20	3.30	3.39	3.42	3.41	3.38	3.36	3.34	3.31	3.21	2.99	2.81	2.73	2.75	2.91	3.34	4.08	4.82	5.37	5.70	5.64	5.17	4.49	3.88	3.48	3.31	3.31	3.28	3.16	3.11	3.09	3.03	3.09	3.15	3.15
4.47	4.53	4.59	4.53	4.37	4.12	3.95	3.89	3.86	3.72	3.56	3.47	3.48	3.56	3.65	3.66	3.42	3.08	2.98	3.16	3.40	3.63	3.96	4.14	4.06	3.89	3.79	3.74	3.69	3.69	3.75	3.79	3.74	3.67	3.68	3.76	3.81	3.78	3.71	3.59	3.53	3.53	3.68	3.81	3.71	3.51	3.41	3.44	3.70	4.20	4.43	4.19	3.81	3.59	3.47	3.44	3.41	3.29	3.13	3.04	3.01	3.02	3.07	3.12	3.14	3.02	2.82	2.76	2.80	2.86	2.90	2.96	3.10	3.29	3.56	3.87	4.17	4.56	5.08	5.36	5.10	4.47	3.83	3.43	3.18	2.97	2.81	2.80	2.96	3.17	3.29	3.34	3.39	3.41	3.40	3.37	3.33	3.29	3.23	3.11	2.94	2.81	2.77	2.85	3.13	3.72	4.43	5.00	5.37	5.50	5.25	4.64	4.02	3.58	3.33	3.24	3.24	3.21	3.10	3.00	2.93	2.97	3.09	3.15	3.15
4.79	4.72	4.57	4.40	4.23	4.03	3.86	3.76	3.71	3.56	3.38	3.31	3.38	3.54	3.61	3.48	3.20	3.03	3.14	3.35	3.49	3.67	4.02	4.21	4.12	3.95	3.80	3.71	3.66	3.69	3.78	3.82	3.79	3.79	3.85	3.89	3.87	3.85	3.84	3.79	3.64	3.56	3.62	3.64	3.49	3.40	3.47	3.60	3.98	4.51	4.60	4.20	3.76	3.54	3.44	3.42	3.37	3.23	3.06	3.01	3.01	3.04	3.09	3.14	3.16	3.08	2.97	2.95	3.00	3.02	3.02	3.10	3.26	3.50	3.81	4.14	4.58	5.15	5.54	5.36	4.71	4.05	3.56	3.18	2.88	2.73	2.72	2.87	3.13	3.36	3.39	3.34	3.33	3.34	3.33	3.31	3.27	3.21	3.13	3.01	2.85	2.74	2.70	2.79	3.12	3.71	4.33	4.86	5.21	5.21	4.80	4.19	3.72	3.41	3.21	3.15	3.23	3.27	3.21	3.13	3.13	3.13	3.14	3.16	3.16
4.94	4.67	4.21	3.97	3.87	3.77	3.63	3.54	3.51	3.43	3.36	3.42	3.59	3.72	3.60	3.31	3.06	3.01	3.12	3.25	3.40	3.67	4.10	4.27	4.13	3.89	3.68	3.57	3.55	3.63	3.76	3.86	3.88	3.89	3.87	3.75	3.63	3.59	3.61	3.61	3.51	3.43	3.39	3.37	3.34	3.40	3.54	3.73	4.24	4.75	4.63	4.06	3.60	3.44	3.40	3.39	3.33	3.18	3.03	3.03	3.08	3.12	3.14	3.16	3.18	3.14	3.09	3.11	3.16	3.18	3.24	3.41	3.64	3.94	4.25	4.61	5.10	5.61	5.66	5.09	4.34	3.87	3.53	3.16	2.93	2.93	3.00	3.14	3.36	3.48	3.44	3.42	3.42	3.41	3.35	3.28	3.22	3.16	3.09	2.98	2.83	2.70	2.60	2.63	2.89	3.43	4.16	4.85	5.18	5.03	4.53	4.00	3.63	3.36	3.14	3.10	3.23	3.33	3.31	3.33	3.40	3.36	3.24	3.21	3.21
4.80	4.40	3.73	3.41	3.31	3.28	3.32	3.42	3.51	3.58	3.68	3.87	4.05	3.98	3.64	3.26	3.01	2.92	2.93	3.08	3.37	3.78	4.20	4.29	4.08	3.82	3.60	3.47	3.43	3.52	3.64	3.72	3.71	3.70	3.62	3.46	3.30	3.20	3.13	3.09	3.12	3.17	3.22	3.27	3.38	3.52	3.63	3.93	4.57	4.90	4.51	3.83	3.47	3.38	3.37	3.37	3.30	3.17	3.08	3.15	3.24	3.27	3.24	3.20	3.19	3.19	3.19	3.25	3.31	3.39	3.58	3.89	4.25	4.62	4.95	5.27	5.63	5.80	5.46	4.70	4.17	3.94	3.75	3.52	3.46	3.55	3.54	3.53	3.59	3.59	3.57	3.67	3.70	3.58	3.45	3.33	3.23	3.17	3.10	3.01	2.87	2.72	2.62	2.68	3.08	3.82	4.59	5.17	5.27	4.91	4.39	3.94	3.63	3.36	3.13	3.08	3.24	3.37	3.41	3.46	3.48	3.41	3.30	3.27	3.27
4.41	3.97	3.31	3.07	2.98	2.99	3.17	3.41	3.62	3.80	3.96	4.12	4.14	3.90	3.51	3.19	2.98	2.88	2.93	3.18	3.53	3.93	4.28	4.30	4.06	3.83	3.63	3.48	3.40	3.42	3.49	3.47	3.40	3.35	3.30	3.16	2.98	2.86	2.76	2.76	2.88	3.05	3.21	3.41	3.66	3.82	3.98	4.41	4.93	4.90	4.30	3.69	3.45	3.39	3.36	3.37	3.36	3.36	3.42	3.52	3.52	3.43	3.33	3.28	3.30	3.33	3.35	3.42	3.52	3.68	4.00	4.43	4.88	5.22	5.44	5.61	5.71	5.60	5.13	4.56	4.30	4.20	4.08	4.08	4.21	4.28	4.18	4.08	4.04	3.97	4.00	4.06	3.92	3.70	3.54	3.40	3.30	3.22	3.15	3.06	2.93	2.81	2.82	3.12	3.79	4.57	5.17	5.42	5.24	4.75	4.26	3.92	3.66	3.38	3.11	3.05	3.28	3.48	3.54	3.54	3.47	3.38	3.30	3.28	3.28
3.91	3.59	3.19	3.11	3.12	3.19	3.33	3.47	3.64	3.81	3.92	3.96	3.82	3.53	3.25	3.06	2.95	2.94	3.11	3.45	3.79	4.12	4.38	4.34	4.10	3.89	3.72	3.60	3.53	3.49	3.46	3.36	3.26	3.18	3.09	2.91	2.73	2.65	2.64	2.72	2.89	3.12	3.43	3.80	4.09	4.26	4.50	4.87	5.06	4.74	4.09	3.63	3.44	3.36	3.36	3.43	3.54	3.69	3.83	3.86	3.71	3.51	3.40	3.40	3.47	3.53	3.53	3.59	3.73	4.01	4.42	4.86	5.18	5.30	5.31	5.32	5.28	5.12	4.82	4.55	4.42	4.31	4.25	4.41	4.68	4.81	4.81	4.78	4.74	4.68	4.64	4.46	4.09	3.79	3.60	3.45	3.35	3.28	3.20	3.12	3.03	3.01	3.19	3.71	4.45	5.06	5.38	5.34	5.00	4.55	4.20	3.97	3.72	3.37	3.02	2.99	3.33	3.59	3.65	3.60	3.51	3.43	3.33	3.28	3.28
3.66	3.61	3.63	3.72	3.75	3.73	3.65	3.59	3.65	3.73	3.76	3.69	3.49	3.25	3.08	2.97	2.93	3.03	3.32	3.71	4.02	4.33	4.48	4.37	4.13	3.94	3.80	3.70	3.66	3.64	3.53	3.35	3.19	3.06	2.90	2.72	2.60	2.60	2.66	2.80	3.05	3.42	3.87	4.24	4.43	4.55	4.72	4.92	4.88	4.43	3.87	3.51	3.31	3.24	3.34	3.52	3.69	3.81	3.82	3.69	3.50	3.42	3.43	3.48	3.57	3.64	3.66	3.72	3.88	4.21	4.63	4.91	4.97	4.85	4.72	4.67	4.71	4.73	4.61	4.39	4.22	4.12	4.17	4.40	4.62	4.75	4.90	5.03	5.07	5.02	4.89	4.60	4.21	3.86	3.64	3.50	3.40	3.32	3.25	3.19	3.19	3.31	3.65	4.25	4.82	5.17	5.24	5.04	4.68	4.38	4.19	3.99	3.66	3.20	2.88	2.98	3.44	3.71	3.73	3.67	3.60	3.52	3.39	3.30	3.30
3.84	4.02	4.33	4.49	4.45	4.26	3.97	3.85	3.84	3.77	3.62	3.46	3.29	3.16	3.04	2.97	2.99	3.20	3.61	4.01	4.28	4.49	4.49	4.31	4.11	3.97	3.83	3.71	3.66	3.64	3.54	3.31	3.08	2.91	2.76	2.65	2.62	2.66	2.76	2.98	3.42	3.96	4.37	4.55	4.57	4.55	4.61	4.71	4.58	4.12	3.64	3.28	3.07	3.10	3.34	3.56	3.66	3.62	3.45	3.26	3.22	3.29	3.38	3.48	3.58	3.66	3.70	3.78	3.93	4.20	4.50	4.57	4.43	4.27	4.14	4.15	4.40	4.61	4.51	4.20	3.98	3.91	3.97	4.11	4.20	4.26	4.42	4.58	4.65	4.59	4.43	4.22	4.05	3.84	3.67	3.54	3.43	3.36	3.29	3.26	3.32	3.53	3.93	4.44	4.81	4.95	4.89	4.64	4.36	4.25	4.16	3.90	3.45	2.96	2.82	3.13	3.64	3.86	3.86	3.80	3.71	3.59	3.41	3.30	3.30
4.11	4.33	4.63	4.72	4.63	4.44	4.29	4.20	4.08	3.83	3.53	3.34	3.24	3.17	3.09	3.05	3.19	3.53	3.97	4.26	4.40	4.43	4.31	4.15	4.03	3.94	3.80	3.64	3.56	3.51	3.41	3.21	3.02	2.87	2.76	2.69	2.69	2.76	2.98	3.43	4.06	4.53	4.67	4.60	4.46	4.36	4.41	4.50	4.34	3.89	3.40	3.04	2.89	3.07	3.36	3.52	3.46	3.25	3.02	2.95	3.04	3.19	3.32	3.44	3.55	3.61	3.68	3.79	3.94	4.14	4.26	4.18	4.05	3.99	3.96	4.10	4.49	4.71	4.54	4.17	3.96	3.88	3.83	3.84	3.93	3.98	4.01	3.99	3.95	3.86	3.71	3.68	3.72	3.69	3.61	3.49	3.40	3.35	3.29	3.28	3.36	3.56	3.91	4.30	4.53	4.54	4.43	4.22	4.14	4.19	4.07	3.70	3.18	2.80	2.87	3.36	3.84	4.00	4.00	3.93	3.79	3.61	3.37	3.25	3.25
4.32	4.44	4.58	4.54	4.38	4.23	4.23	4.19	4.02	3.74	3.47	3.34	3.29	3.23	3.18	3.24	3.50	3.87	4.19	4.29	4.24	4.13	4.03	4.00	3.98	3.90	3.71	3.48	3.40	3.36	3.25	3.12	3.02	2.92	2.82	2.76	2.81	3.01	3.46	4.11	4.61	4.70	4.51	4.29	4.16	4.14	4.25	4.33	4.14	3.68	3.21	2.95	2.94	3.15	3.39	3.41	3.21	2.89	2.67	2.68	2.87	3.12	3.30	3.43	3.53	3.61	3.68	3.79	3.93	4.07	4.11	4.06	4.01	3.98	4.04	4.36	4.77	4.88	4.62	4.26	4.04	3.90	3.77	3.80	3.97	4.02	3.92	3.75	3.55	3.38	3.31	3.35	3.43	3.48	3.48	3.42	3.34	3.27	3.23	3.25	3.35	3.56	3.83	4.06	4.17	4.14	4.06	4.07	4.18	4.20	3.95	3.47	2.97	2.78	3.01	3.56	3.98	4.11	4.11	4.00	3.82	3.55	3.27	3.17	3.17
4.46	4.51	4.54	4.37	4.10	3.88	3.82	3.78	3.70	3.58	3.46	3.40	3.36	3.30	3.29	3.43	3.73	4.02	4.14	4.06	3.91	3.79	3.82	3.95	4.00	3.89	3.66	3.45	3.38	3.32	3.21	3.10	3.02	2.92	2.85	2.86	3.07	3.49	4.06	4.54	4.64	4.40	4.10	3.95	3.94	4.01	4.13	4.16	3.92	3.49	3.13	2.99	3.01	3.20	3.39	3.34	3.11	2.85	2.67	2.70	2.93	3.16	3.34	3.49	3.61	3.68	3.73	3.77	3.84	3.90	3.99	4.06	4.01	3.95	4.15	4.67	5.08	5.00	4.65	4.28	4.04	3.84	3.73	3.88	4.09	4.02	3.82	3.58	3.33	3.16	3.15	3.23	3.29	3.32	3.35	3.32	3.26	3.20	3.17	3.22	3.36	3.57	3.76	3.88	3.94	3.98	4.07	4.23	4.31	4.16	3.77	3.26	2.89	2.90	3.22	3.70	4.08	4.23	4.20	4.03	3.74	3.44	3.21	3.15	3.15
4.53	4.53	4.41	4.09	3.76	3.53	3.41	3.36	3.39	3.41	3.41	3.41	3.38	3.34	3.36	3.49	3.69	3.78	3.71	3.56	3.44	3.46	3.69	4.01	4.11	3.96	3.74	3.61	3.55	3.41	3.24	3.09	2.95	2.86	2.85	2.99	3.34	3.84	4.25	4.41	4.27	4.00	3.81	3.80	3.87	3.92	3.98	3.97	3.74	3.38	3.12	2.97	2.98	3.21	3.44	3.39	3.22	3.07	2.99	3.08	3.27	3.35	3.43	3.55	3.67	3.73	3.73	3.72	3.73	3.80	3.96	4.06	3.97	4.00	4.47	5.13	5.35	5.03	4.52	4.13	3.88	3.69	3.66	3.89	4.03	3.81	3.54	3.31	3.12	3.02	3.06	3.12	3.15	3.16	3.17	3.18	3.19	3.18	3.19	3.24	3.35	3.49	3.62	3.74	3.92	4.12	4.31	4.42	4.33	4.02	3.56	3.12	2.94	3.06	3.43	3.88	4.24	4.36	4.25	3.93	3.54	3.26	3.15	3.14	3.14
4.48	4.34	3.96	3.47	3.13	3.01	3.04	3.13	3.20	3.24	3.28	3.34	3.37	3.36	3.38	3.42	3.41	3.30	3.16	3.12	3.17	3.38	3.80	4.20	4.25	4.03	3.83	3.75	3.62	3.39	3.19	3.02	2.87	2.83	2.91	3.09	3.44	3.84	4.08	4.12	4.01	3.81	3.73	3.78	3.81	3.79	3.80	3.79	3.62	3.32	3.03	2.87	3.00	3.35	3.58	3.54	3.40	3.33	3.38	3.51	3.59	3.54	3.52	3.59	3.68	3.73	3.72	3.74	3.82	3.98	4.11	4.08	4.06	4.38	5.05	5.48	5.35	4.81	4.28	3.94	3.74	3.61	3.63	3.81	3.81	3.51	3.25	3.12	3.06	3.03	3.00	3.00	3.00	3.01	3.03	3.07	3.12	3.17	3.21	3.26	3.30	3.37	3.51	3.76	4.08	4.36	4.50	4.46	4.23	3.84	3.42	3.12	3.05	3.20	3.58	4.08	4.40	4.42	4.16	3.74	3.39	3.18	3.13	3.15	3.15
4.22	3.95	3.48	3.05	2.75	2.76	2.95	3.12	3.20	3.25	3.29	3.33	3.37	3.37	3.34	3.27	3.15	3.05	3.10	3.25	3.41	3.68	4.09	4.35	4.26	3.97	3.76	3.63	3.36	3.10	2.99	2.89	2.82	2.87	2.99	3.18	3.47	3.81	4.01	4.08	3.97	3.78	3.71	3.74	3.68	3.61	3.63	3.64	3.48	3.13	2.80	2.81	3.18	3.60	3.76	3.70	3.58	3.55	3.63	3.71	3.73	3.70	3.69	3.74	3.75	3.73	3.75	3.85	4.00	4.12	4.11	4.05	4.27	4.86	5.42	5.40	4.92	4.38	4.03	3.81	3.68	3.60	3.62	3.70	3.57	3.27	3.14	3.14	3.17	3.17	3.05	2.97	2.96	2.98	3.03	3.07	3.10	3.16	3.22	3.27	3.30	3.41	3.65	3.99	4.32	4.52	4.55	4.40	4.09	3.71	3.36	3.15	3.11	3.29	3.73	4.21	4.43	4.34	4.02	3.65	3.36	3.20	3.18	3.20	3.20
3.81	3.62	3.35	3.19	3.08	3.10	3.19	3.23	3.25	3.32	3.39	3.41	3.40	3.35	3.25	3.15	3.13	3.24	3.41	3.50	3.55	3.76	4.11	4.28	4.11	3.78	3.53	3.26	2.91	2.74	2.75	2.75	2.81	2.93	3.07	3.26	3.58	3.93	4.15	4.17	3.97	3.74	3.65	3.61	3.49	3.41	3.47	3.50	3.28	2.85	2.66	2.96	3.49	3.82	3.87	3.78	3.69	3.67	3.71	3.74	3.78	3.86	3.92	3.93	3.85	3.77	3.79	3.89	3.97	3.95	3.91	4.09	4.59	5.18	5.37	4.97	4.35	3.97	3.79	3.64	3.50	3.41	3.43	3.47	3.30	3.14	3.19	3.27	3.26	3.21	3.06	2.95	2.96	3.03	3.08	3.11	3.13	3.18	3.26	3.34	3.43	3.62	3.94	4.25	4.46	4.56	4.49	4.25	3.88	3.50	3.20	3.04	3.10	3.40	3.88	4.25	4.35	4.19	3.87	3.52	3.25	3.16	3.21	3.24	3.24
3.53	3.50	3.45	3.45	3.46	3.46	3.42	3.37	3.37	3.41	3.42	3.41	3.40	3.32	3.22	3.21	3.33	3.46	3.43	3.28	3.27	3.55	3.98	4.17	3.95	3.55	3.18	2.83	2.56	2.54	2.67	2.77	2.87	3.00	3.16	3.39	3.75	4.09	4.23	4.12	3.87	3.67	3.56	3.45	3.30	3.25	3.36	3.36	3.05	2.69	2.75	3.28	3.76	3.93	3.90	3.80	3.73	3.70	3.68	3.70	3.76	3.87	3.93	3.90	3.82	3.77	3.77	3.81	3.80	3.77	3.90	4.34	4.88	5.11	4.95	4.47	4.01	3.75	3.60	3.44	3.27	3.17	3.14	3.09	3.05	3.13	3.32	3.36	3.23	3.10	2.97	2.90	2.97	3.07	3.09	3.12	3.17	3.23	3.33	3.43	3.56	3.80	4.10	4.32	4.46	4.49	4.33	3.96	3.53	3.21	3.02	3.00	3.22	3.63	4.05	4.27	4.27	4.07	3.70	3.32	3.11	3.12	3.22	3.25	3.25
3.44	3.48	3.52	3.57	3.60	3.61	3.68	3.71	3.70	3.60	3.43	3.34	3.34	3.31	3.30	3.40	3.51	3.47	3.26	3.12	3.28	3.72	4.13	4.19	3.82	3.32	2.91	2.64	2.54	2.64	2.79	2.90	2.98	3.11	3.30	3.58	3.89	4.11	4.12	3.95	3.74	3.60	3.50	3.34	3.19	3.20	3.31	3.24	2.93	2.76	3.02	3.57	3.91	3.96	3.88	3.79	3.71	3.62	3.55	3.58	3.66	3.74	3.77	3.72	3.66	3.66	3.69	3.71	3.72	3.79	4.09	4.51	4.72	4.65	4.47	4.20	3.90	3.67	3.49	3.32	3.20	3.11	3.00	2.90	2.93	3.20	3.39	3.32	3.12	2.96	2.88	2.89	3.00	3.09	3.09	3.12	3.18	3.24	3.32	3.41	3.56	3.80	4.06	4.25	4.34	4.28	4.00	3.60	3.28	3.09	3.03	3.16	3.49	3.88	4.16	4.28	4.23	4.00	3.66	3.34	3.19	3.23	3.29	3.28	3.28
3.37	3.40	3.51	3.70	3.84	3.93	4.00	3.95	3.75	3.46	3.25	3.24	3.31	3.36	3.40	3.49	3.52	3.44	3.39	3.53	3.85	4.17	4.36	4.20	3.71	3.22	2.93	2.84	2.89	3.00	3.06	3.06	3.10	3.22	3.41	3.62	3.82	3.98	3.98	3.85	3.70	3.61	3.50	3.36	3.26	3.26	3.30	3.20	2.96	2.93	3.31	3.80	4.00	3.95	3.85	3.75	3.62	3.47	3.39	3.47	3.58	3.62	3.60	3.50	3.42	3.46	3.57	3.64	3.71	3.87	4.11	4.26	4.18	4.18	4.26	4.14	3.87	3.64	3.42	3.25	3.17	3.10	2.95	2.84	2.95	3.25	3.35	3.21	3.01	2.87	2.81	2.85	3.00	3.12	3.11	3.11	3.15	3.19	3.26	3.35	3.51	3.73	3.96	4.11	4.14	3.99	3.71	3.43	3.24	3.16	3.20	3.44	3.78	4.06	4.22	4.26	4.16	3.92	3.63	3.38	3.30	3.35	3.34	3.29	3.29
