ncols	125
nrows	152
xllcorner	-2042055
yllcorner	1465485
cellsize	30.000000
NODATA_value	-9999.000000
2.10	2.13	2.26	2.36	2.31	2.26	2.31	2.46	2.63	2.80	3.02	3.16	2.92	2.68	2.83	3.13	3.40	3.31	2.69	2.11	1.98	2.23	2.61	2.87	3.03	3.12	2.99	2.46	1.85	1.54	1.52	1.62	1.69	1.71	1.64	1.58	1.62	1.66	1.65	1.62	1.59	1.59	1.63	1.70	1.74	1.72	1.65	1.65	1.76	2.02	2.39	2.78	3.11	3.38	3.41	3.35	3.26	3.02	2.84	2.71	2.59	2.41	2.26	2.28	2.34	2.39	2.42	2.41	2.33	2.31	2.34	2.39	2.40	2.38	2.37	2.37	2.32	2.25	2.39	2.64	2.64	2.25	2.05	2.40	2.86	3.19	3.17	2.71	2.00	1.70	1.71	1.62	1.58	1.62	1.67	1.83	2.24	2.56	2.52	2.36	2.25	2.02	2.01	2.16	2.03	1.65	1.60	1.78	1.73	1.69	1.66	1.55	1.55	1.64	1.74	1.77	1.73	1.73	1.87	2.16	2.42	2.51	2.28	2.03	2.03
2.10	2.13	2.26	2.36	2.31	2.26	2.31	2.46	2.63	2.80	3.02	3.16	2.92	2.68	2.83	3.13	3.40	3.31	2.69	2.11	1.98	2.23	2.61	2.87	3.03	3.12	2.99	2.46	1.85	1.54	1.52	1.62	1.69	1.71	1.64	1.58	1.62	1.66	1.65	1.62	1.59	1.59	1.63	1.70	1.74	1.72	1.65	1.65	1.76	2.02	2.39	2.78	3.11	3.38	3.41	3.35	3.26	3.02	2.84	2.71	2.59	2.41	2.26	2.28	2.34	2.39	2.42	2.41	2.33	2.31	2.34	2.39	2.40	2.38	2.37	2.37	2.32	2.25	2.39	2.64	2.64	2.25	2.05	2.40	2.86	3.19	3.17	2.71	2.00	1.70	1.71	1.62	1.58	1.62	1.67	1.83	2.24	2.56	2.52	2.36	2.25	2.02	2.01	2.16	2.03	1.65	1.60	1.78	1.73	1.69	1.66	1.55	1.55	1.64	1.74	1.77	1.73	1.73	1.87	2.16	2.42	2.51	2.28	2.03	2.03
2.05	2.14	2.33	2.40	2.33	2.35	2.44	2.58	2.70	2.77	2.83	2.82	2.64	2.60	2.81	2.95	2.98	2.82	2.37	1.97	2.05	2.45	2.77	2.82	2.76	2.67	2.33	1.78	1.39	1.30	1.42	1.58	1.70	1.74	1.66	1.56	1.58	1.63	1.61	1.57	1.55	1.57	1.60	1.71	1.81	1.78	1.70	1.71	1.91	2.29	2.67	2.88	2.97	3.05	3.06	2.98	2.85	2.71	2.58	2.48	2.38	2.24	2.20	2.27	2.33	2.33	2.31	2.28	2.30	2.33	2.38	2.40	2.36	2.30	2.26	2.25	2.21	2.25	2.45	2.59	2.33	1.98	2.06	2.59	2.89	2.93	2.72	2.22	1.71	1.63	1.68	1.57	1.54	1.63	1.79	2.09	2.55	2.58	2.21	2.05	1.99	1.78	1.89	2.02	1.73	1.39	1.49	1.74	1.67	1.60	1.52	1.45	1.51	1.61	1.75	1.83	1.80	1.82	2.03	2.34	2.47	2.31	1.97	1.76	1.76
2.09	2.28	2.51	2.51	2.44	2.48	2.59	2.67	2.70	2.67	2.56	2.31	2.15	2.26	2.66	2.68	2.35	2.05	1.82	1.79	2.21	2.78	2.94	2.65	2.25	1.83	1.28	0.88	0.79	1.01	1.30	1.54	1.73	1.81	1.75	1.64	1.64	1.66	1.58	1.49	1.53	1.60	1.67	1.82	1.98	1.96	1.89	1.96	2.26	2.72	3.03	2.99	2.75	2.54	2.43	2.28	2.12	2.09	2.09	2.09	2.10	2.11	2.13	2.17	2.18	2.18	2.14	2.13	2.19	2.28	2.32	2.28	2.18	2.08	2.05	2.07	2.11	2.24	2.42	2.39	1.97	1.81	2.21	2.85	2.91	2.45	1.93	1.51	1.37	1.55	1.63	1.52	1.60	1.89	2.28	2.70	2.81	2.42	1.72	1.52	1.51	1.42	1.59	1.65	1.36	1.18	1.39	1.61	1.59	1.52	1.40	1.36	1.48	1.69	1.96	2.10	2.09	2.16	2.41	2.67	2.60	2.15	1.71	1.55	1.55
2.30	2.48	2.67	2.59	2.49	2.52	2.58	2.60	2.57	2.53	2.41	2.10	1.82	1.89	2.41	2.53	2.08	1.65	1.56	1.78	2.39	2.88	2.84	2.35	1.76	1.20	0.73	0.54	0.65	0.97	1.31	1.60	1.83	1.92	1.87	1.78	1.77	1.79	1.67	1.57	1.66	1.76	1.84	2.01	2.13	2.10	2.03	2.15	2.50	2.93	3.12	2.95	2.59	2.25	2.00	1.74	1.60	1.63	1.73	1.84	1.93	1.99	2.01	1.97	1.97	2.00	2.01	2.04	2.08	2.08	2.04	1.95	1.85	1.82	1.87	1.99	2.10	2.19	2.27	2.20	1.98	2.01	2.42	2.88	2.75	2.02	1.42	1.18	1.26	1.52	1.57	1.55	1.82	2.33	2.76	2.83	2.50	1.91	1.41	1.17	1.15	1.21	1.36	1.39	1.30	1.33	1.48	1.54	1.57	1.59	1.46	1.42	1.63	1.95	2.23	2.45	2.60	2.77	2.92	2.88	2.61	2.16	1.72	1.53	1.53
2.49	2.59	2.69	2.61	2.48	2.47	2.50	2.42	2.40	2.42	2.33	2.02	1.68	1.75	2.30	2.51	2.07	1.58	1.56	1.87	2.45	2.76	2.55	1.93	1.28	0.79	0.53	0.52	0.72	1.06	1.43	1.76	1.96	1.97	1.88	1.83	1.87	1.91	1.83	1.74	1.77	1.85	1.93	2.09	2.20	2.14	2.09	2.28	2.64	3.01	3.12	2.87	2.46	2.02	1.67	1.46	1.46	1.58	1.68	1.72	1.76	1.77	1.72	1.67	1.75	1.87	1.95	1.98	1.99	1.93	1.83	1.72	1.64	1.69	1.82	1.97	2.08	2.15	2.21	2.18	2.13	2.23	2.51	2.73	2.47	1.75	1.15	1.04	1.24	1.54	1.59	1.72	2.22	2.73	2.79	2.37	1.82	1.50	1.20	0.96	0.97	1.17	1.36	1.39	1.39	1.51	1.64	1.64	1.68	1.79	1.73	1.63	1.83	2.20	2.58	2.97	3.23	3.28	3.09	2.70	2.34	2.03	1.59	1.37	1.37
2.66	2.71	2.69	2.58	2.45	2.37	2.29	2.20	2.19	2.26	2.25	2.01	1.68	1.80	2.34	2.52	2.12	1.64	1.57	1.80	2.31	2.53	2.19	1.52	0.95	0.62	0.52	0.62	0.87	1.22	1.59	1.89	2.00	1.95	1.88	1.91	1.99	2.02	1.94	1.84	1.82	1.88	1.97	2.09	2.16	2.07	2.04	2.27	2.72	3.08	3.15	2.83	2.29	1.85	1.62	1.54	1.65	1.75	1.74	1.65	1.60	1.57	1.50	1.49	1.63	1.82	1.95	1.99	1.96	1.86	1.76	1.67	1.65	1.75	1.89	2.01	2.08	2.17	2.26	2.27	2.25	2.35	2.47	2.45	2.18	1.63	1.08	1.03	1.33	1.62	1.70	2.00	2.53	2.68	2.26	1.67	1.34	1.21	1.07	0.95	1.01	1.26	1.48	1.58	1.62	1.68	1.81	1.88	1.87	1.95	1.98	1.90	2.02	2.45	3.01	3.49	3.59	3.28	2.68	2.05	1.90	1.86	1.43	1.25	1.25
2.79	2.79	2.69	2.50	2.35	2.18	2.02	1.95	2.07	2.21	2.21	2.00	1.81	1.97	2.40	2.48	2.08	1.58	1.40	1.59	2.13	2.30	1.90	1.26	0.78	0.56	0.58	0.77	1.05	1.37	1.70	1.94	2.03	2.01	2.02	2.11	2.16	2.13	2.04	1.94	1.89	1.92	2.00	2.03	1.99	1.94	1.99	2.28	2.82	3.28	3.26	2.81	2.21	1.83	1.71	1.74	1.79	1.76	1.60	1.43	1.37	1.40	1.43	1.49	1.64	1.85	2.01	2.06	1.97	1.81	1.70	1.69	1.73	1.83	1.97	2.05	2.12	2.26	2.37	2.34	2.31	2.35	2.34	2.19	1.97	1.58	1.13	1.11	1.47	1.72	1.86	2.20	2.44	2.15	1.50	1.21	1.12	1.06	1.00	1.02	1.18	1.46	1.69	1.82	1.88	1.88	2.00	2.17	2.17	2.15	2.19	2.19	2.27	2.71	3.46	3.82	3.55	2.83	1.99	1.57	1.70	1.84	1.50	1.30	1.30
2.93	2.84	2.63	2.37	2.16	1.99	1.83	1.87	2.11	2.24	2.20	2.08	2.03	2.15	2.34	2.34	1.95	1.40	1.17	1.46	2.05	2.13	1.64	1.05	0.66	0.58	0.73	0.99	1.26	1.51	1.80	2.03	2.18	2.30	2.39	2.40	2.32	2.22	2.14	2.05	1.98	1.99	2.05	2.02	1.91	1.90	2.08	2.51	3.12	3.49	3.34	2.72	2.08	1.73	1.62	1.61	1.56	1.40	1.18	1.09	1.18	1.34	1.46	1.52	1.67	1.94	2.18	2.19	1.97	1.70	1.60	1.68	1.80	1.94	2.07	2.15	2.27	2.45	2.50	2.39	2.30	2.30	2.24	2.31	1.92	1.60	1.24	1.29	1.65	1.85	1.95	2.09	1.96	1.44	1.05	1.04	1.11	1.08	1.05	1.17	1.43	1.68	1.91	2.09	2.21	2.24	2.41	2.65	2.64	2.51	2.45	2.48	2.58	3.03	3.80	3.87	3.13	2.22	1.59	1.54	1.87	1.93	1.59	1.38	1.38
3.01	2.87	2.49	2.19	1.98	1.85	1.79	1.98	2.27	2.36	2.27	2.22	2.23	2.24	2.20	2.11	1.75	1.22	1.11	1.53	2.06	1.96	1.37	0.87	0.66	0.73	0.93	1.19	1.44	1.71	2.01	2.26	2.51	2.66	2.61	2.42	2.25	2.16	2.12	2.06	2.02	2.06	2.13	2.13	2.03	2.04	2.27	2.81	3.38	3.55	3.21	2.45	1.82	1.43	1.32	1.32	1.24	1.02	0.90	0.99	1.19	1.40	1.52	1.56	1.72	2.09	2.39	2.32	1.94	1.55	1.49	1.71	1.98	2.18	2.29	2.37	2.54	2.71	2.66	2.47	2.33	2.30	2.30	2.20	1.98	1.64	1.38	1.50	1.82	1.89	1.77	1.61	1.32	1.07	1.01	1.16	1.26	1.27	1.25	1.37	1.66	1.95	2.19	2.42	2.62	2.82	3.06	3.16	2.92	2.63	2.58	2.69	2.85	3.26	3.66	3.49	2.57	1.81	1.56	1.72	1.98	1.87	1.52	1.35	1.35
3.19	2.88	2.36	2.07	1.91	1.86	1.98	2.31	2.53	2.49	2.37	2.33	2.31	2.19	2.02	1.85	1.56	1.23	1.28	1.73	2.04	1.76	1.18	0.83	0.81	0.95	1.13	1.37	1.68	2.01	2.30	2.56	2.75	2.71	2.37	2.01	1.93	2.03	2.07	2.02	2.00	2.05	2.12	2.15	2.12	2.14	2.38	3.02	3.51	3.46	2.87	2.11	1.54	1.22	1.11	1.10	1.04	0.90	0.90	1.08	1.31	1.53	1.67	1.70	1.86	2.27	2.51	2.30	1.85	1.48	1.50	1.90	2.32	2.52	2.59	2.67	2.81	2.84	2.65	2.42	2.33	2.34	2.33	2.23	1.96	1.61	1.47	1.64	1.83	1.67	1.36	1.20	1.13	1.15	1.30	1.42	1.46	1.50	1.53	1.65	1.97	2.30	2.55	2.86	3.17	3.33	3.33	3.13	2.65	2.35	2.44	2.64	2.85	3.19	3.37	3.03	2.33	1.79	1.68	1.77	1.79	1.62	1.36	1.27	1.27
3.35	2.96	2.38	2.10	2.02	2.09	2.35	2.61	2.68	2.52	2.39	2.35	2.29	2.09	1.86	1.72	1.55	1.42	1.54	1.87	1.96	1.58	1.07	0.89	1.01	1.18	1.38	1.69	2.05	2.33	2.49	2.63	2.63	2.35	1.84	1.58	1.76	1.98	1.98	1.91	1.91	1.97	2.07	2.16	2.13	2.14	2.47	3.17	3.52	3.25	2.49	1.85	1.40	1.09	0.94	0.92	0.94	0.92	1.01	1.22	1.48	1.76	1.94	1.97	2.09	2.36	2.47	2.21	1.83	1.61	1.68	2.16	2.61	2.78	2.80	2.80	2.77	2.61	2.26	2.08	2.10	2.15	2.13	2.02	1.79	1.50	1.46	1.62	1.65	1.41	1.25	1.28	1.37	1.48	1.59	1.66	1.70	1.81	1.98	2.15	2.44	2.74	3.03	3.37	3.51	3.36	3.00	2.50	2.03	1.96	2.18	2.35	2.56	3.03	3.26	2.85	2.25	1.89	1.75	1.69	1.59	1.42	1.21	1.17	1.17
3.34	3.03	2.54	2.27	2.23	2.35	2.56	2.64	2.54	2.36	2.27	2.24	2.17	1.97	1.82	1.75	1.66	1.60	1.67	1.84	1.78	1.34	0.96	0.98	1.19	1.40	1.67	1.98	2.20	2.31	2.35	2.32	2.16	1.80	1.47	1.52	1.82	1.91	1.78	1.76	1.81	1.88	2.03	2.13	2.13	2.20	2.56	3.21	3.39	2.90	2.17	1.64	1.22	0.94	0.85	0.89	0.95	0.99	1.13	1.40	1.74	2.06	2.22	2.23	2.24	2.33	2.36	2.17	1.93	1.80	1.92	2.41	2.85	2.91	2.75	2.55	2.33	2.02	1.77	1.79	1.95	2.02	2.00	1.88	1.63	1.46	1.51	1.59	1.57	1.51	1.54	1.60	1.67	1.78	1.89	1.97	2.07	2.28	2.49	2.62	2.87	3.21	3.42	3.45	3.29	2.87	2.38	1.99	1.70	1.66	1.89	2.07	2.40	3.09	3.33	2.80	2.15	1.83	1.69	1.59	1.51	1.31	1.18	1.21	1.21
3.25	3.08	2.72	2.47	2.37	2.42	2.48	2.42	2.21	2.05	2.03	2.03	1.96	1.84	1.81	1.80	1.72	1.62	1.61	1.66	1.50	1.07	0.91	1.09	1.30	1.48	1.72	1.88	1.91	1.90	1.88	1.80	1.70	1.52	1.44	1.64	1.80	1.72	1.62	1.69	1.74	1.80	1.94	2.00	2.06	2.27	2.67	3.10	3.13	2.57	1.90	1.36	1.01	0.92	0.96	1.06	1.05	1.05	1.26	1.62	2.01	2.32	2.41	2.37	2.31	2.32	2.32	2.21	2.06	1.97	2.16	2.67	2.93	2.73	2.32	1.97	1.76	1.62	1.60	1.81	2.06	2.14	2.09	1.90	1.71	1.69	1.73	1.72	1.71	1.75	1.76	1.77	1.86	2.01	2.17	2.27	2.41	2.58	2.64	2.70	2.99	3.37	3.37	2.99	2.72	2.38	1.97	1.73	1.47	1.42	1.69	2.05	2.59	3.28	3.35	2.68	2.02	1.71	1.52	1.44	1.40	1.29	1.28	1.35	1.35
3.22	3.11	2.73	2.45	2.31	2.32	2.29	2.09	1.87	1.80	1.84	1.84	1.75	1.67	1.69	1.72	1.64	1.50	1.45	1.39	1.17	0.93	0.99	1.19	1.28	1.37	1.50	1.55	1.55	1.57	1.54	1.54	1.60	1.58	1.60	1.71	1.74	1.66	1.65	1.73	1.75	1.77	1.85	1.92	2.07	2.44	2.78	2.95	2.79	2.31	1.65	1.12	0.94	1.08	1.29	1.33	1.15	1.13	1.44	1.85	2.23	2.50	2.57	2.53	2.48	2.45	2.39	2.26	2.13	2.13	2.42	2.78	2.70	2.17	1.72	1.59	1.60	1.55	1.63	1.96	2.31	2.42	2.27	2.06	2.06	2.12	2.00	1.84	1.78	1.80	1.80	1.81	1.93	2.14	2.26	2.26	2.29	2.29	2.22	2.36	2.93	3.33	2.99	2.36	2.36	2.22	1.75	1.41	1.21	1.33	1.86	2.47	2.97	3.37	3.23	2.53	1.91	1.61	1.42	1.29	1.26	1.33	1.38	1.39	1.39
3.36	3.12	2.57	2.19	2.00	2.02	2.07	1.94	1.79	1.78	1.84	1.78	1.63	1.53	1.58	1.59	1.44	1.32	1.23	1.09	0.97	0.99	1.13	1.22	1.23	1.24	1.33	1.43	1.50	1.54	1.52	1.55	1.68	1.76	1.77	1.82	1.84	1.79	1.78	1.83	1.85	1.87	1.94	2.08	2.33	2.71	2.86	2.76	2.45	1.99	1.45	1.08	1.12	1.46	1.67	1.54	1.23	1.26	1.69	2.15	2.49	2.72	2.76	2.71	2.69	2.65	2.52	2.34	2.22	2.32	2.59	2.61	2.13	1.61	1.50	1.65	1.73	1.67	1.78	2.17	2.56	2.63	2.43	2.34	2.44	2.41	2.12	1.83	1.72	1.77	1.83	1.84	1.94	2.09	2.03	1.82	1.77	1.79	1.81	2.20	3.02	3.35	2.68	2.04	2.24	2.12	1.47	1.06	1.12	1.61	2.38	2.80	3.14	3.35	3.06	2.34	1.82	1.58	1.42	1.33	1.34	1.42	1.41	1.35	1.35
3.47	3.07	2.36	1.88	1.64	1.78	1.98	1.96	1.86	1.92	1.96	1.86	1.72	1.65	1.65	1.53	1.26	1.11	1.03	0.97	1.01	1.12	1.19	1.22	1.22	1.25	1.38	1.52	1.61	1.67	1.67	1.67	1.78	1.88	1.92	1.98	2.05	2.00	1.95	1.98	2.07	2.18	2.31	2.49	2.72	2.87	2.76	2.43	2.12	1.83	1.43	1.25	1.47	1.81	1.93	1.67	1.36	1.55	2.10	2.57	2.88	3.02	2.97	2.86	2.80	2.72	2.59	2.42	2.33	2.39	2.47	2.21	1.66	1.49	1.71	1.93	1.90	1.80	1.95	2.37	2.72	2.77	2.68	2.69	2.66	2.42	2.06	1.78	1.70	1.77	1.85	1.83	1.85	1.83	1.58	1.47	1.60	1.74	1.93	2.50	3.34	3.38	2.42	1.86	2.06	1.86	1.15	0.95	1.36	2.05	2.52	2.82	3.21	3.31	2.84	2.14	1.70	1.57	1.54	1.56	1.58	1.54	1.43	1.34	1.34
3.30	2.92	2.13	1.57	1.46	1.73	2.03	2.12	2.14	2.22	2.23	2.14	2.06	1.93	1.77	1.49	1.16	0.97	0.93	1.00	1.09	1.12	1.16	1.24	1.31	1.40	1.55	1.67	1.72	1.78	1.82	1.81	1.89	2.02	2.07	2.15	2.22	2.18	2.11	2.20	2.39	2.54	2.69	2.82	2.85	2.72	2.38	2.02	1.91	1.81	1.56	1.53	1.81	2.11	2.11	1.75	1.58	1.97	2.60	3.03	3.22	3.20	3.00	2.81	2.68	2.57	2.48	2.37	2.30	2.29	2.24	2.00	1.72	1.86	2.20	2.27	2.12	2.03	2.21	2.56	2.84	2.93	2.92	2.86	2.60	2.24	1.93	1.71	1.67	1.76	1.83	1.78	1.70	1.54	1.44	1.63	1.93	2.12	2.42	3.03	3.51	3.21	2.14	1.60	1.74	1.59	1.01	1.06	1.66	2.08	2.42	3.00	3.43	3.22	2.58	2.02	1.67	1.60	1.68	1.72	1.67	1.56	1.41	1.33	1.33
3.11	2.72	1.84	1.33	1.47	2.02	2.44	2.59	2.64	2.64	2.59	2.49	2.35	2.09	1.75	1.41	1.13	0.94	0.90	0.98	1.03	1.03	1.14	1.34	1.47	1.58	1.70	1.79	1.82	1.87	1.95	2.02	2.12	2.22	2.27	2.33	2.40	2.38	2.38	2.51	2.69	2.81	2.83	2.74	2.50	2.13	1.76	1.66	1.85	1.89	1.79	1.90	2.19	2.38	2.22	1.79	1.83	2.44	3.02	3.27	3.26	3.06	2.78	2.56	2.44	2.35	2.32	2.26	2.17	2.12	2.16	2.15	2.19	2.43	2.64	2.61	2.48	2.47	2.60	2.76	2.93	3.02	2.97	2.73	2.35	1.97	1.72	1.62	1.71	1.82	1.83	1.76	1.65	1.60	1.78	2.13	2.34	2.46	2.79	3.32	3.41	2.78	1.80	1.32	1.36	1.29	1.00	1.24	1.70	2.05	2.71	3.49	3.56	2.88	2.20	1.89	1.70	1.68	1.75	1.69	1.54	1.48	1.38	1.30	1.30
2.92	2.43	1.54	1.28	1.78	2.51	2.92	3.03	3.01	2.88	2.70	2.51	2.27	1.94	1.63	1.39	1.17	0.97	0.91	0.95	0.96	1.01	1.24	1.51	1.65	1.72	1.82	1.94	1.97	2.00	2.15	2.32	2.45	2.52	2.55	2.60	2.60	2.57	2.63	2.74	2.80	2.76	2.57	2.24	1.82	1.47	1.38	1.58	1.95	2.08	2.11	2.28	2.48	2.47	2.18	1.89	2.16	2.82	3.17	3.18	2.97	2.68	2.42	2.27	2.24	2.22	2.18	2.11	2.02	2.04	2.24	2.38	2.52	2.69	2.76	2.70	2.66	2.70	2.73	2.73	2.79	2.88	2.76	2.44	2.07	1.81	1.74	1.84	1.97	1.99	1.89	1.80	1.77	1.87	2.14	2.32	2.33	2.40	2.87	3.32	3.02	2.10	1.43	1.01	0.94	1.02	1.15	1.52	1.88	2.39	3.24	3.67	3.30	2.32	1.84	1.80	1.80	1.75	1.71	1.57	1.38	1.39	1.31	1.25	1.25
2.46	2.06	1.52	1.60	2.36	3.07	3.31	3.22	3.01	2.74	2.47	2.23	1.98	1.70	1.50	1.34	1.16	0.98	0.93	0.96	1.00	1.15	1.45	1.70	1.83	1.90	2.02	2.15	2.18	2.24	2.45	2.69	2.80	2.82	2.78	2.69	2.63	2.67	2.73	2.67	2.53	2.31	1.97	1.55	1.26	1.22	1.42	1.81	2.19	2.40	2.51	2.63	2.63	2.42	2.13	2.11	2.52	2.94	3.05	2.84	2.55	2.27	2.05	1.97	2.09	2.12	1.99	1.84	1.80	1.93	2.19	2.44	2.60	2.65	2.59	2.50	2.46	2.50	2.52	2.45	2.52	2.59	2.45	2.20	2.03	1.99	2.09	2.23	2.26	2.10	1.90	1.81	1.85	1.94	2.07	2.03	1.96	2.24	2.98	3.19	2.40	1.58	1.05	0.74	0.77	1.03	1.44	1.93	2.29	2.78	3.50	3.62	2.86	1.95	1.67	1.82	1.93	1.78	1.64	1.53	1.41	1.39	1.22	1.17	1.17
2.04	1.96	1.93	2.33	3.02	3.44	3.41	3.09	2.71	2.37	2.13	1.93	1.70	1.49	1.32	1.17	1.04	0.95	0.97	1.06	1.20	1.46	1.74	1.92	2.05	2.16	2.29	2.41	2.48	2.59	2.83	3.01	2.97	2.84	2.62	2.40	2.43	2.58	2.53	2.24	1.92	1.66	1.34	1.12	1.16	1.38	1.78	2.24	2.55	2.78	2.85	2.76	2.56	2.32	2.16	2.30	2.62	2.78	2.69	2.40	2.12	1.90	1.69	1.72	1.92	1.96	1.82	1.71	1.67	1.77	2.07	2.37	2.51	2.46	2.29	2.13	1.99	2.04	2.11	2.05	2.21	2.39	2.31	2.18	2.15	2.18	2.21	2.18	2.07	1.88	1.75	1.74	1.81	1.81	1.74	1.67	1.84	2.45	3.11	2.93	1.89	1.07	0.73	0.73	0.94	1.34	1.81	2.30	2.65	3.02	3.56	3.43	2.47	1.75	1.69	1.93	2.02	1.80	1.61	1.57	1.50	1.41	1.17	1.10	1.10
2.18	2.32	2.60	2.95	3.31	3.43	3.17	2.74	2.32	2.05	1.88	1.71	1.51	1.31	1.11	0.95	0.90	0.93	1.05	1.23	1.51	1.78	1.97	2.11	2.24	2.40	2.54	2.67	2.77	2.90	3.03	3.01	2.76	2.43	2.05	1.89	2.19	2.35	2.09	1.65	1.32	1.18	1.08	1.16	1.44	1.78	2.23	2.63	2.92	3.07	2.97	2.69	2.39	2.18	2.15	2.29	2.44	2.42	2.22	1.99	1.79	1.60	1.51	1.65	1.85	1.88	1.83	1.84	1.83	1.85	2.04	2.30	2.43	2.33	2.08	1.86	1.77	1.94	2.00	1.90	2.04	2.27	2.31	2.23	2.12	2.02	1.91	1.75	1.61	1.52	1.55	1.63	1.74	1.70	1.63	1.75	2.13	2.73	3.02	2.54	1.43	0.70	0.68	1.01	1.36	1.69	2.09	2.57	2.87	3.08	3.27	3.03	2.15	1.75	1.85	2.02	2.00	1.80	1.64	1.58	1.46	1.29	1.11	1.05	1.05
2.57	2.65	2.82	3.02	3.18	3.11	2.77	2.39	2.05	1.88	1.75	1.57	1.37	1.17	0.95	0.81	0.84	0.98	1.15	1.35	1.61	1.80	1.96	2.13	2.31	2.52	2.68	2.81	2.88	2.88	2.81	2.55	2.13	1.77	1.52	1.64	1.96	1.94	1.56	1.23	1.08	1.10	1.23	1.53	1.84	2.17	2.62	2.97	3.17	3.12	2.81	2.43	2.16	2.01	2.03	2.14	2.16	2.05	1.85	1.67	1.53	1.46	1.53	1.71	1.83	1.85	1.94	2.09	2.12	2.04	2.07	2.20	2.30	2.22	1.94	1.74	1.85	2.09	2.03	1.85	2.00	2.20	2.27	2.22	2.03	1.83	1.70	1.60	1.50	1.45	1.49	1.56	1.65	1.67	1.75	2.01	2.31	2.71	2.78	2.12	1.07	0.61	0.94	1.48	1.76	1.97	2.27	2.72	2.93	2.87	2.87	2.69	2.18	2.05	2.11	2.08	2.00	1.87	1.70	1.51	1.28	1.04	1.03	1.12	1.12
2.93	2.83	2.74	2.84	2.90	2.75	2.45	2.14	1.92	1.79	1.66	1.46	1.25	1.04	0.86	0.79	0.88	1.03	1.16	1.32	1.51	1.65	1.84	2.07	2.35	2.63	2.78	2.79	2.69	2.50	2.21	1.81	1.42	1.24	1.28	1.49	1.64	1.54	1.31	1.17	1.16	1.33	1.64	1.94	2.21	2.55	2.92	3.19	3.20	2.95	2.56	2.23	2.00	1.87	1.89	1.98	1.96	1.79	1.59	1.44	1.38	1.49	1.75	1.97	2.03	2.05	2.22	2.32	2.21	2.08	2.06	2.12	2.15	2.10	1.92	1.84	2.03	2.19	1.98	1.80	1.93	2.06	2.14	2.20	2.08	1.88	1.76	1.68	1.59	1.51	1.48	1.49	1.58	1.67	1.75	1.92	2.22	2.59	2.52	1.73	0.82	0.68	1.31	1.80	1.90	2.00	2.27	2.67	2.74	2.47	2.61	2.76	2.59	2.51	2.41	2.29	2.21	2.08	1.76	1.37	1.02	0.81	1.11	1.47	1.47
3.23	2.93	2.61	2.66	2.66	2.53	2.30	2.05	1.86	1.73	1.58	1.39	1.16	0.98	0.89	0.88	0.97	1.07	1.16	1.32	1.53	1.74	2.00	2.29	2.58	2.80	2.80	2.59	2.28	1.95	1.54	1.19	1.00	1.05	1.23	1.39	1.46	1.44	1.35	1.32	1.44	1.71	2.02	2.32	2.60	2.89	3.14	3.21	3.03	2.69	2.35	2.08	1.85	1.73	1.79	1.90	1.84	1.61	1.42	1.33	1.43	1.75	2.09	2.25	2.27	2.33	2.41	2.29	2.09	2.05	2.10	2.03	1.98	2.02	2.00	2.00	2.14	2.17	1.96	1.85	1.90	1.93	1.98	2.17	2.18	2.03	1.85	1.68	1.53	1.45	1.43	1.44	1.54	1.67	1.70	1.80	2.16	2.46	2.16	1.27	0.62	0.84	1.55	1.80	1.73	1.82	2.14	2.43	2.40	2.34	2.74	3.11	3.06	2.84	2.64	2.49	2.31	2.06	1.70	1.20	0.83	0.79	1.39	1.96	1.96
3.36	3.00	2.58	2.55	2.53	2.44	2.28	2.05	1.86	1.73	1.58	1.38	1.18	1.07	1.02	1.10	1.10	1.16	1.28	1.53	1.82	2.13	2.42	2.65	2.77	2.77	2.58	2.21	1.79	1.40	1.05	0.91	0.95	1.13	1.33	1.42	1.48	1.54	1.58	1.61	1.74	2.01	2.36	2.70	2.97	3.16	3.19	3.04	2.74	2.41	2.12	1.90	1.73	1.65	1.76	1.85	1.68	1.46	1.39	1.49	1.78	2.16	2.42	2.49	2.50	2.49	2.37	2.18	2.12	2.19	2.13	1.93	1.84	2.00	2.11	2.07	2.13	2.17	2.10	2.02	1.97	1.92	1.95	2.13	2.22	2.12	1.91	1.65	1.47	1.40	1.38	1.42	1.53	1.66	1.67	1.76	2.10	2.18	1.60	0.82	0.67	1.10	1.55	1.60	1.55	1.76	2.07	2.24	2.34	2.70	3.35	3.60	3.29	2.87	2.59	2.35	2.03	1.69	1.36	1.00	0.83	1.01	1.77	2.25	2.25
3.45	3.09	2.63	2.51	2.45	2.43	2.33	2.10	1.90	1.79	1.66	1.45	1.31	1.27	1.23	1.21	1.21	1.27	1.48	1.82	2.18	2.47	2.62	2.63	2.54	2.37	2.14	1.75	1.28	0.94	0.86	0.97	1.16	1.37	1.51	1.59	1.65	1.72	1.82	1.88	1.99	2.28	2.71	3.06	3.25	3.26	3.06	2.73	2.41	2.14	1.96	1.86	1.76	1.71	1.77	1.71	1.46	1.43	1.55	1.86	2.30	2.64	2.77	2.75	2.64	2.53	2.36	2.24	2.30	2.28	2.02	1.78	1.86	2.14	2.19	2.06	2.12	2.29	2.30	2.20	2.08	1.99	1.99	2.08	2.14	2.14	1.99	1.72	1.50	1.40	1.35	1.38	1.47	1.58	1.60	1.69	1.91	1.72	1.00	0.70	0.93	1.32	1.48	1.50	1.59	1.83	2.09	2.33	2.78	3.46	3.98	3.86	3.17	2.57	2.28	2.00	1.67	1.31	0.98	0.81	0.92	1.43	2.06	2.28	2.28
3.51	3.14	2.67	2.46	2.37	2.46	2.41	2.19	1.98	1.84	1.71	1.52	1.41	1.37	1.32	1.27	1.24	1.33	1.62	2.04	2.34	2.43	2.35	2.15	1.97	1.82	1.66	1.33	0.92	0.80	0.97	1.28	1.51	1.61	1.70	1.78	1.82	1.88	2.00	2.07	2.21	2.57	3.06	3.35	3.40	3.17	2.76	2.37	2.10	1.97	1.97	1.97	1.89	1.80	1.69	1.47	1.39	1.59	1.85	2.33	2.83	3.02	2.94	2.76	2.59	2.46	2.40	2.40	2.33	2.11	1.85	1.79	2.05	2.27	2.19	2.12	2.31	2.52	2.50	2.31	2.13	2.02	2.00	2.01	2.07	2.11	2.03	1.82	1.57	1.42	1.35	1.34	1.39	1.49	1.52	1.58	1.62	1.22	0.75	0.86	1.30	1.49	1.53	1.60	1.75	1.98	2.31	2.85	3.53	4.06	4.17	3.66	2.62	2.18	2.03	1.75	1.43	1.06	0.76	0.73	1.09	1.82	2.11	2.12	2.12
3.46	3.18	2.73	2.47	2.35	2.42	2.43	2.27	2.05	1.84	1.65	1.47	1.36	1.28	1.18	1.18	1.15	1.33	1.71	2.09	2.19	2.04	1.79	1.57	1.46	1.41	1.30	1.08	0.88	0.95	1.36	1.66	1.75	1.79	1.85	1.94	2.00	2.03	2.10	2.23	2.46	2.88	3.31	3.51	3.32	2.88	2.38	2.05	1.92	1.94	2.06	2.15	2.03	1.86	1.64	1.46	1.55	1.84	2.17	2.78	3.20	3.19	2.89	2.56	2.34	2.30	2.36	2.36	2.24	2.04	1.95	2.05	2.29	2.33	2.20	2.29	2.59	2.73	2.57	2.29	2.05	1.94	1.90	1.95	2.04	2.07	2.04	1.91	1.67	1.48	1.38	1.34	1.39	1.45	1.45	1.44	1.33	0.97	0.84	1.18	1.50	1.61	1.67	1.77	1.95	2.26	2.77	3.47	4.06	4.22	3.88	2.98	2.12	1.91	1.86	1.58	1.20	0.81	0.62	0.74	1.24	1.79	1.94	1.88	1.88
3.46	3.23	2.79	2.52	2.41	2.40	2.42	2.30	2.07	1.82	1.62	1.46	1.35	1.22	1.07	1.15	1.09	1.36	1.75	1.92	1.78	1.49	1.26	1.15	1.15	1.20	1.16	1.05	1.06	1.36	1.74	1.87	1.86	1.87	1.93	2.04	2.09	2.07	2.15	2.37	2.71	3.10	3.42	3.41	3.05	2.51	2.12	1.89	1.86	2.00	2.14	2.24	2.16	1.92	1.70	1.58	1.70	1.99	2.42	3.11	3.36	3.06	2.54	2.21	2.08	2.16	2.26	2.24	2.20	2.20	2.23	2.27	2.33	2.34	2.35	2.55	2.73	2.66	2.37	2.02	1.80	1.76	1.80	1.88	1.97	2.02	2.04	1.96	1.74	1.54	1.43	1.42	1.45	1.42	1.38	1.36	1.23	1.06	1.14	1.43	1.63	1.75	1.87	2.01	2.25	2.66	3.23	3.89	4.21	3.96	3.18	2.30	1.81	1.74	1.72	1.46	1.00	0.61	0.58	0.79	1.26	1.60	1.86	2.00	2.00
3.61	3.29	2.78	2.54	2.43	2.42	2.39	2.28	2.06	1.83	1.65	1.51	1.40	1.24	1.07	1.01	1.12	1.39	1.60	1.48	1.23	1.08	0.99	0.96	1.05	1.21	1.24	1.23	1.37	1.66	1.88	1.88	1.82	1.82	1.90	2.02	2.02	2.02	2.16	2.48	2.91	3.27	3.41	3.19	2.76	2.34	2.04	1.87	1.86	1.98	2.16	2.30	2.25	1.93	1.69	1.55	1.65	1.97	2.56	3.25	3.36	2.83	2.26	1.96	1.92	2.11	2.25	2.17	2.15	2.22	2.25	2.23	2.25	2.33	2.46	2.61	2.57	2.31	1.96	1.71	1.64	1.65	1.69	1.77	1.91	1.98	1.99	1.93	1.81	1.63	1.50	1.47	1.44	1.34	1.32	1.37	1.31	1.29	1.48	1.68	1.80	1.96	2.12	2.30	2.60	2.98	3.46	3.93	3.95	3.29	2.51	2.02	1.76	1.72	1.68	1.39	0.91	0.62	0.67	0.98	1.43	1.66	2.04	2.36	2.36
3.69	3.33	2.81	2.58	2.45	2.39	2.30	2.18	2.02	1.84	1.67	1.52	1.38	1.20	1.06	1.02	1.10	1.26	1.22	0.96	0.86	0.74	0.88	0.96	1.09	1.34	1.52	1.60	1.66	1.76	1.84	1.82	1.73	1.71	1.77	1.88	1.93	1.99	2.22	2.63	3.08	3.39	3.33	2.94	2.49	2.17	1.94	1.84	1.85	1.92	2.09	2.36	2.30	1.86	1.53	1.37	1.47	1.87	2.64	3.33	3.31	2.68	2.10	1.90	1.95	2.15	2.23	2.08	2.03	2.07	2.02	1.96	2.08	2.29	2.37	2.32	2.14	1.90	1.74	1.67	1.63	1.54	1.53	1.72	1.92	1.97	1.93	1.87	1.79	1.69	1.55	1.44	1.31	1.22	1.29	1.41	1.40	1.44	1.61	1.75	1.88	2.04	2.22	2.49	2.82	3.12	3.45	3.66	3.45	2.82	2.36	2.12	1.94	1.86	1.77	1.44	0.97	0.76	0.82	1.21	1.59	1.80	2.18	2.46	2.46
3.52	3.30	2.97	2.76	2.54	2.28	2.08	2.01	1.92	1.79	1.63	1.47	1.30	1.12	0.99	0.95	0.96	0.98	0.84	0.58	0.66	0.96	1.08	1.16	1.31	1.56	1.78	1.90	1.90	1.85	1.85	1.82	1.72	1.66	1.70	1.82	1.96	2.08	2.34	2.78	3.20	3.38	3.14	2.59	2.08	1.85	1.78	1.76	1.78	1.88	2.05	2.35	2.31	1.76	1.29	1.17	1.30	1.82	2.65	3.31	3.30	2.65	2.15	2.01	2.07	2.18	2.13	1.92	1.89	1.94	1.76	1.65	1.92	2.24	2.19	1.94	1.80	1.77	1.78	1.73	1.51	1.35	1.50	1.84	2.01	1.99	1.92	1.83	1.74	1.68	1.59	1.45	1.25	1.16	1.28	1.43	1.43	1.44	1.55	1.68	1.82	2.00	2.27	2.61	2.90	3.11	3.29	3.33	3.16	2.86	2.55	2.28	2.07	1.92	1.73	1.38	1.00	0.83	0.89	1.22	1.52	1.77	2.18	2.44	2.44
3.31	3.28	3.13	2.90	2.58	2.20	1.99	1.91	1.81	1.70	1.59	1.43	1.25	1.07	0.94	0.86	0.80	0.76	0.65	0.57	0.98	1.17	1.32	1.41	1.55	1.76	1.97	2.08	2.08	2.01	1.94	1.85	1.75	1.69	1.75	1.90	2.05	2.20	2.47	2.87	3.22	3.24	2.81	2.15	1.80	1.81	1.87	1.88	1.91	1.94	2.04	2.27	2.24	1.69	1.13	1.08	1.29	1.86	2.64	3.26	3.27	2.77	2.32	2.15	2.10	2.01	1.87	1.71	1.76	1.88	1.67	1.54	1.86	2.19	1.94	1.64	1.70	1.83	1.85	1.63	1.30	1.32	1.75	2.13	2.21	2.11	1.99	1.86	1.75	1.71	1.65	1.54	1.38	1.28	1.34	1.44	1.44	1.45	1.56	1.70	1.88	2.11	2.38	2.64	2.84	2.96	3.01	3.07	3.19	3.06	2.58	2.16	1.93	1.74	1.48	1.09	0.85	0.85	1.01	1.32	1.58	1.82	2.22	2.54	2.54
3.37	3.38	3.24	2.92	2.58	2.20	1.99	1.88	1.75	1.62	1.50	1.39	1.24	1.04	0.86	0.77	0.72	0.73	0.82	0.93	1.23	1.43	1.57	1.67	1.78	1.93	2.07	2.16	2.16	2.07	1.93	1.81	1.74	1.75	1.87	2.03	2.19	2.34	2.60	2.93	3.13	3.00	2.50	1.99	1.86	2.02	2.19	2.28	2.24	2.11	2.03	2.14	2.16	1.70	1.13	1.09	1.33	1.87	2.58	3.19	3.27	2.92	2.41	2.12	1.93	1.75	1.64	1.61	1.74	1.89	1.69	1.55	1.87	2.15	1.79	1.55	1.71	1.90	1.87	1.58	1.37	1.65	2.18	2.46	2.41	2.18	1.95	1.82	1.80	1.82	1.81	1.77	1.68	1.54	1.46	1.46	1.46	1.49	1.59	1.74	1.93	2.10	2.25	2.44	2.63	2.69	2.67	2.99	3.44	3.27	2.56	2.07	1.83	1.62	1.33	1.00	0.88	1.00	1.38	1.74	1.94	2.14	2.39	2.51	2.51
3.57	3.49	3.18	2.78	2.42	2.11	1.93	1.80	1.64	1.48	1.38	1.32	1.23	1.01	0.77	0.67	0.68	0.82	0.85	1.26	1.51	1.68	1.80	1.87	1.91	2.00	2.10	2.17	2.18	2.08	1.89	1.76	1.76	1.85	2.02	2.18	2.34	2.52	2.75	2.94	2.97	2.75	2.36	2.16	2.29	2.49	2.63	2.62	2.46	2.16	1.97	1.96	2.07	1.72	1.18	1.12	1.35	1.89	2.58	3.20	3.33	2.95	2.38	2.00	1.73	1.56	1.53	1.62	1.77	1.92	1.74	1.54	1.85	2.11	1.79	1.61	1.75	1.92	1.94	1.79	1.77	2.07	2.45	2.58	2.38	1.96	1.66	1.64	1.78	1.92	1.98	1.98	1.91	1.74	1.60	1.53	1.49	1.45	1.44	1.53	1.70	1.77	1.91	2.17	2.38	2.38	2.51	3.19	3.72	3.41	2.61	2.12	1.86	1.66	1.44	1.16	1.06	1.22	1.63	1.90	2.10	2.28	2.30	2.23	2.23
3.79	3.55	2.97	2.49	2.14	1.88	1.75	1.61	1.42	1.27	1.25	1.26	1.20	0.99	0.69	0.58	0.69	0.93	1.18	1.44	1.66	1.78	1.83	1.84	1.86	1.96	2.04	2.11	2.16	2.11	1.90	1.77	1.82	1.98	2.14	2.32	2.50	2.72	2.92	3.01	2.91	2.63	2.46	2.51	2.72	2.84	2.81	2.59	2.29	2.01	1.84	1.82	1.93	1.71	1.20	1.14	1.40	1.96	2.68	3.29	3.35	2.91	2.31	1.92	1.66	1.54	1.56	1.65	1.77	1.93	1.77	1.50	1.76	2.10	1.89	1.68	1.77	1.96	2.11	2.08	2.06	2.20	2.40	2.35	1.96	1.50	1.41	1.67	1.97	2.12	2.11	2.05	1.99	1.86	1.70	1.56	1.46	1.35	1.26	1.31	1.40	1.49	1.71	2.04	2.23	2.31	2.74	3.62	3.93	3.45	2.64	2.14	1.85	1.67	1.48	1.21	1.12	1.18	1.43	1.60	1.83	2.01	1.99	1.94	1.94
3.99	3.58	2.75	2.20	1.87	1.71	1.61	1.40	1.17	1.09	1.31	1.22	1.16	0.93	0.84	0.53	0.75	0.76	1.24	1.45	1.58	1.61	1.60	1.61	1.70	1.84	1.95	2.04	2.13	2.10	1.95	1.88	1.95	2.08	2.26	2.49	2.70	2.87	3.05	3.16	3.01	2.70	2.56	2.66	2.81	2.78	2.55	2.21	1.94	1.75	1.68	1.71	1.80	1.66	1.22	1.18	1.50	2.09	2.79	3.34	3.35	2.82	2.21	1.84	1.62	1.52	1.52	1.59	1.73	1.90	1.75	1.48	1.69	2.15	2.03	1.74	1.74	2.01	2.29	2.25	2.02	1.98	2.10	1.96	1.55	1.36	1.62	2.13	2.44	2.45	2.36	2.31	2.22	1.97	1.68	1.47	1.39	1.32	1.23	1.29	1.38	1.49	1.76	2.08	2.28	2.56	3.21	3.89	3.96	3.34	2.53	2.04	1.79	1.59	1.36	1.13	1.07	1.06	1.24	1.45	1.64	1.77	1.95	2.08	2.08
4.11	3.59	2.59	2.01	1.73	1.64	1.52	1.27	1.08	1.11	1.25	1.30	1.15	1.13	0.90	0.63	0.65	1.12	1.06	1.28	1.33	1.38	1.41	1.48	1.64	1.85	1.95	2.04	2.12	2.11	2.04	2.01	2.07	2.23	2.52	2.82	2.97	3.04	3.19	3.27	3.07	2.71	2.55	2.61	2.64	2.49	2.21	1.96	1.81	1.70	1.67	1.70	1.74	1.60	1.26	1.27	1.64	2.22	2.80	3.25	3.25	2.73	2.10	1.76	1.55	1.42	1.40	1.50	1.67	1.83	1.73	1.51	1.71	2.19	2.15	1.78	1.69	1.99	2.38	2.28	1.81	1.63	1.78	1.75	1.60	1.78	2.31	2.70	2.75	2.62	2.51	2.42	2.26	1.90	1.55	1.38	1.32	1.28	1.25	1.38	1.57	1.78	2.08	2.42	2.69	2.98	3.44	3.85	3.76	3.14	2.36	1.95	1.75	1.56	1.30	1.09	1.06	1.12	1.35	1.58	1.75	1.87	2.14	2.36	2.36
4.10	3.53	2.51	1.91	1.72	1.65	1.52	1.30	1.20	1.31	1.45	1.44	1.19	0.82	1.05	0.54	0.84	1.18	1.16	1.09	1.18	1.36	1.48	1.60	1.78	1.93	1.99	2.03	2.08	2.12	2.16	2.20	2.32	2.60	2.94	3.18	3.25	3.24	3.24	3.15	2.89	2.49	2.35	2.45	2.49	2.35	2.10	1.96	1.88	1.88	1.86	1.80	1.72	1.53	1.28	1.32	1.71	2.18	2.60	3.02	3.11	2.65	2.00	1.72	1.58	1.46	1.44	1.53	1.66	1.76	1.72	1.62	1.83	2.24	2.23	1.81	1.63	1.92	2.39	2.26	1.65	1.42	1.59	1.74	1.93	2.38	2.75	2.84	2.66	2.44	2.30	2.13	1.89	1.62	1.39	1.27	1.18	1.14	1.15	1.40	1.78	2.16	2.55	2.86	2.99	3.07	3.37	3.66	3.50	2.92	2.30	1.94	1.79	1.63	1.34	1.11	1.09	1.19	1.49	1.80	2.04	2.17	2.27	2.36	2.36
3.92	3.41	2.49	1.96	1.79	1.73	1.59	1.42	1.40	1.53	1.62	1.50	1.13	0.81	0.79	1.02	1.20	1.26	1.18	1.15	1.33	1.57	1.71	1.79	1.89	1.98	1.99	2.00	2.06	2.15	2.30	2.47	2.70	3.00	3.24	3.38	3.36	3.23	3.10	2.89	2.53	2.21	2.06	2.18	2.42	2.36	2.13	1.97	1.94	1.95	1.95	1.80	1.63	1.41	1.21	1.27	1.62	1.93	2.23	2.76	3.00	2.63	2.01	1.74	1.69	1.63	1.62	1.63	1.66	1.72	1.75	1.77	1.95	2.27	2.25	1.79	1.59	1.95	2.42	2.22	1.58	1.35	1.52	1.87	2.31	2.68	2.78	2.61	2.35	2.14	1.96	1.73	1.47	1.27	1.14	1.06	1.00	1.01	1.13	1.49	2.07	2.53	2.77	2.87	2.81	2.75	3.13	3.51	3.38	2.85	2.29	1.97	1.82	1.63	1.34	1.14	1.13	1.24	1.56	1.97	2.22	2.21	2.13	2.12	2.12
3.72	3.30	2.52	2.07	1.90	1.80	1.66	1.55	1.61	1.70	1.68	1.41	0.94	0.77	0.93	1.20	1.34	1.39	1.37	1.44	1.65	1.86	1.97	1.99	2.02	2.03	2.03	2.04	2.12	2.24	2.51	2.83	3.12	3.27	3.28	3.24	3.16	2.96	2.73	2.50	2.20	1.91	1.72	1.89	2.30	2.41	2.24	1.99	1.89	1.83	1.72	1.55	1.42	1.25	1.15	1.27	1.55	1.71	1.93	2.53	2.89	2.67	2.20	1.98	1.90	1.79	1.71	1.69	1.72	1.76	1.77	1.81	1.98	2.21	2.17	1.75	1.64	2.04	2.40	2.14	1.53	1.39	1.69	2.13	2.54	2.77	2.70	2.40	2.12	1.93	1.73	1.51	1.26	1.00	0.86	0.84	0.87	0.99	1.26	1.71	2.23	2.51	2.50	2.42	2.33	2.33	2.99	3.55	3.41	2.86	2.30	2.01	1.82	1.59	1.34	1.18	1.17	1.28	1.62	1.94	2.04	1.87	1.89	1.95	1.95
3.60	3.21	2.53	2.14	1.96	1.86	1.77	1.76	1.81	1.80	1.64	1.26	0.84	0.77	1.04	1.29	1.44	1.53	1.59	1.71	1.92	2.09	2.14	2.11	2.09	2.08	2.07	2.13	2.24	2.39	2.78	3.22	3.41	3.27	3.01	2.88	2.78	2.61	2.38	2.19	2.00	1.69	1.43	1.54	2.14	2.52	2.38	1.99	1.76	1.59	1.41	1.27	1.17	1.12	1.16	1.38	1.60	1.70	1.89	2.36	2.76	2.75	2.50	2.30	2.01	1.77	1.76	1.85	1.85	1.73	1.61	1.67	1.89	2.10	2.09	1.86	1.83	2.13	2.34	2.04	1.56	1.58	1.97	2.27	2.52	2.78	2.69	2.28	1.95	1.75	1.55	1.34	1.11	0.85	0.74	0.72	0.81	0.99	1.30	1.65	1.98	2.19	2.12	2.11	2.12	2.32	3.16	3.77	3.54	2.87	2.35	2.08	1.88	1.67	1.41	1.21	1.18	1.26	1.48	1.59	1.57	1.62	1.91	2.14	2.14
3.51	3.16	2.56	2.22	2.10	2.04	2.01	1.98	1.93	1.79	1.52	1.09	0.82	0.72	1.15	1.40	1.55	1.66	1.75	1.89	2.06	2.14	2.12	2.03	1.99	2.02	2.07	2.17	2.36	2.62	3.12	3.52	3.49	3.04	2.64	2.55	2.50	2.36	2.12	1.92	1.77	1.49	1.17	1.26	1.96	2.58	2.48	1.97	1.60	1.45	1.36	1.23	1.07	1.06	1.24	1.53	1.70	1.77	1.89	2.20	2.64	2.83	2.67	2.31	1.92	1.83	1.94	1.93	1.71	1.44	1.41	1.59	1.83	1.99	2.04	2.02	2.10	2.26	2.29	2.04	1.71	1.77	2.04	2.21	2.42	2.71	2.65	2.22	1.83	1.57	1.32	1.08	0.84	0.67	0.66	0.69	0.80	0.97	1.29	1.60	1.86	2.01	2.04	2.11	2.25	2.73	3.61	4.00	3.61	2.80	2.30	2.07	1.86	1.63	1.36	1.18	1.18	1.24	1.34	1.37	1.44	1.73	2.20	2.49	2.49
3.44	3.15	2.65	2.38	2.28	2.23	2.14	2.02	1.87	1.65	1.32	0.94	0.82	0.95	1.37	1.60	1.71	1.80	1.90	1.98	2.01	1.99	1.92	1.83	1.86	1.97	2.07	2.24	2.56	2.96	3.42	3.59	3.35	2.76	2.38	2.35	2.31	2.14	1.88	1.66	1.47	1.23	0.95	1.09	1.85	2.58	2.57	2.05	1.66	1.50	1.40	1.27	1.14	1.19	1.42	1.65	1.70	1.68	1.72	2.01	2.53	2.86	2.70	2.28	2.04	2.05	1.97	1.67	1.37	1.30	1.46	1.73	1.91	1.99	2.07	2.22	2.37	2.41	2.45	2.11	1.89	1.85	1.99	2.18	2.42	2.60	2.52	2.20	1.78	1.43	1.18	0.93	0.62	0.48	0.56	0.66	0.80	1.07	1.45	1.72	1.92	2.06	2.17	2.30	2.60	3.31	4.00	4.08	3.44	2.58	2.17	1.98	1.75	1.52	1.32	1.21	1.23	1.27	1.33	1.46	1.69	2.03	2.40	2.61	2.61
3.49	3.21	2.73	2.49	2.36	2.23	2.05	1.87	1.66	1.40	1.07	0.79	0.80	1.16	1.60	1.74	1.80	1.90	1.95	1.92	1.87	1.83	1.76	1.74	1.84	1.98	2.13	2.42	2.86	3.27	3.49	3.45	3.15	2.66	2.25	2.12	2.07	1.94	1.70	1.41	1.13	0.93	0.88	1.17	1.86	2.56	2.68	2.24	1.79	1.50	1.31	1.27	1.38	1.54	1.70	1.70	1.61	1.55	1.61	1.91	2.43	2.84	2.75	2.40	2.19	2.03	1.66	1.39	1.35	1.53	1.79	1.96	2.05	2.11	2.23	2.41	2.54	2.49	2.40	2.29	2.45	1.98	2.04	2.27	2.44	2.45	2.37	2.19	1.84	1.50	1.28	0.95	0.61	0.51	0.57	0.68	0.88	1.26	1.62	1.86	2.03	2.20	2.38	2.57	2.98	3.76	4.25	3.94	3.05	2.38	2.08	1.89	1.69	1.53	1.43	1.33	1.27	1.22	1.28	1.53	1.88	2.26	2.43	2.44	2.44
3.62	3.31	2.77	2.47	2.29	2.11	1.90	1.69	1.45	1.15	0.81	0.67	0.77	1.23	1.62	1.69	1.76	1.84	1.85	1.80	1.77	1.74	1.71	1.74	1.86	2.02	2.23	2.64	3.14	3.40	3.30	3.10	3.05	2.69	2.15	1.88	1.81	1.78	1.60	1.24	0.84	0.78	1.00	1.40	1.91	2.54	2.75	2.30	1.63	1.27	1.26	1.50	1.87	2.06	1.97	1.76	1.61	1.57	1.61	1.84	2.33	2.79	2.80	2.48	2.15	1.83	1.57	1.52	1.71	1.96	2.12	2.19	2.24	2.31	2.42	2.58	2.65	2.59	2.55	2.51	2.28	2.14	2.19	2.35	2.41	2.35	2.27	2.19	1.96	1.61	1.29	0.91	0.70	0.63	0.69	0.82	1.15	1.58	1.86	2.02	2.16	2.37	2.62	2.89	3.40	4.12	4.27	3.61	2.73	2.31	2.04	1.78	1.66	1.60	1.50	1.31	1.12	1.02	1.12	1.50	1.95	2.32	2.34	2.23	2.23
3.71	3.38	2.75	2.38	2.18	1.97	1.77	1.55	1.30	0.97	0.63	0.62	0.87	1.26	1.53	1.56	1.66	1.73	1.76	1.73	1.69	1.67	1.67	1.72	1.84	2.04	2.31	2.81	3.35	3.40	3.03	2.83	2.95	2.71	2.07	1.65	1.58	1.62	1.50	1.07	0.67	0.76	1.15	1.50	1.86	2.47	2.73	2.22	1.50	1.28	1.56	2.14	2.56	2.49	2.17	1.86	1.66	1.59	1.61	1.80	2.24	2.72	2.80	2.52	2.22	2.05	2.08	2.21	2.34	2.46	2.50	2.51	2.54	2.59	2.68	2.81	2.87	2.80	2.72	2.58	2.32	2.17	2.25	2.33	2.35	2.28	2.20	2.18	2.03	1.58	1.00	0.66	0.64	0.70	0.88	1.17	1.58	1.93	2.09	2.13	2.23	2.53	2.93	3.34	3.82	4.14	3.97	3.15	2.51	2.24	1.94	1.65	1.60	1.64	1.44	1.07	0.85	0.80	0.99	1.43	1.89	2.14	2.20	2.21	2.21
3.71	3.39	2.68	2.27	2.08	1.88	1.67	1.47	1.23	0.86	0.64	0.72	1.16	1.42	1.55	1.58	1.67	1.72	1.74	1.68	1.62	1.61	1.63	1.68	1.81	2.04	2.40	3.03	3.56	3.39	2.85	2.69	2.84	2.63	2.03	1.55	1.41	1.36	1.23	0.84	0.60	0.82	1.21	1.48	1.80	2.38	2.68	2.26	1.67	1.70	2.30	2.88	2.96	2.61	2.16	1.84	1.63	1.57	1.66	1.86	2.22	2.62	2.77	2.71	2.62	2.64	2.74	2.82	2.85	2.86	2.87	2.88	2.89	2.91	2.96	3.00	2.99	2.91	2.73	2.48	2.26	2.17	2.23	2.23	2.21	2.16	2.09	2.12	1.98	1.41	0.67	0.49	0.58	0.79	1.11	1.48	1.78	1.94	1.98	1.96	2.18	2.70	3.30	3.79	4.03	3.88	3.41	2.72	2.32	2.11	1.81	1.54	1.51	1.61	1.37	0.88	0.66	0.65	0.93	1.38	1.74	2.01	2.32	2.56	2.56
3.75	3.38	2.62	2.19	2.01	1.83	1.63	1.46	1.22	0.88	0.82	1.01	1.48	1.67	1.67	1.69	1.73	1.73	1.70	1.61	1.58	1.59	1.61	1.67	1.80	2.08	2.57	3.32	3.72	3.32	2.65	2.58	2.68	2.48	2.06	1.60	1.28	1.03	0.86	0.73	0.74	1.02	1.35	1.60	1.90	2.36	2.68	2.49	2.18	2.47	3.04	3.22	2.94	2.36	1.92	1.68	1.52	1.55	1.68	1.84	2.14	2.55	2.81	2.93	2.96	2.96	2.95	2.91	2.86	2.85	2.85	2.88	2.89	2.91	2.91	2.85	2.77	2.66	2.48	2.29	2.18	2.19	2.18	2.14	2.09	2.01	1.97	2.01	1.78	1.10	0.46	0.41	0.57	0.79	1.05	1.30	1.45	1.54	1.59	1.68	2.10	2.87	3.66	4.02	3.90	3.39	2.87	2.43	2.14	1.97	1.77	1.53	1.45	1.50	1.28	0.71	0.50	0.52	0.88	1.34	1.71	2.12	2.62	2.90	2.90
3.84	3.40	2.60	2.17	1.95	1.75	1.59	1.47	1.21	0.94	1.00	1.32	1.71	1.77	1.71	1.66	1.64	1.62	1.60	1.56	1.56	1.59	1.61	1.67	1.84	2.18	2.77	3.52	3.72	3.09	2.46	2.42	2.46	2.35	2.10	1.66	1.10	0.74	0.71	0.87	1.08	1.40	1.67	1.88	2.14	2.54	2.90	2.96	2.95	3.15	3.28	3.09	2.57	1.97	1.62	1.47	1.34	1.38	1.52	1.66	1.97	2.42	2.92	3.12	3.11	2.93	2.74	2.57	2.47	2.45	2.47	2.51	2.52	2.51	2.47	2.39	2.32	2.21	2.07	1.99	1.98	2.04	2.10	2.08	2.03	1.88	1.83	1.83	1.47	0.78	0.40	0.43	0.58	0.70	0.88	1.08	1.21	1.37	1.56	1.80	2.36	3.24	3.93	3.98	3.40	2.72	2.42	2.22	2.00	1.85	1.72	1.51	1.34	1.32	1.08	0.51	0.35	0.49	0.97	1.41	1.82	2.31	2.84	3.10	3.10
3.87	3.40	2.60	2.15	1.87	1.66	1.57	1.48	1.19	0.98	1.08	1.48	1.77	1.71	1.55	1.45	1.42	1.44	1.48	1.49	1.52	1.56	1.61	1.73	1.95	2.31	2.90	3.55	3.61	2.90	2.36	2.30	2.25	2.20	2.13	1.60	0.90	0.68	0.87	1.22	1.50	1.77	1.97	2.19	2.54	3.02	3.40	3.44	3.28	3.15	2.98	2.60	2.13	1.66	1.39	1.28	1.16	1.15	1.34	1.57	1.91	2.36	2.94	3.29	3.19	2.78	2.45	2.21	2.14	2.15	2.17	2.17	2.13	2.08	2.01	1.93	1.93	1.86	1.74	1.67	1.72	1.81	1.84	1.94	1.82	2.39	1.64	1.54	1.14	0.66	0.52	0.61	0.67	0.76	1.00	1.26	1.44	1.69	2.04	2.51	3.11	3.61	3.81	3.61	2.90	2.31	2.18	2.13	1.96	1.78	1.60	1.34	1.15	1.08	0.82	0.32	0.27	0.62	1.12	1.48	1.89	2.38	2.93	3.23	3.23
3.80	3.35	2.59	2.14	1.84	1.61	1.55	1.46	1.16	1.00	1.27	1.38	1.64	1.46	1.24	1.15	1.20	1.29	1.34	1.38	1.47	1.56	1.67	1.88	2.13	2.44	2.96	3.49	3.49	2.91	2.43	2.29	2.18	2.12	2.02	1.44	0.76	0.71	1.06	1.44	1.72	1.96	2.17	2.48	3.01	3.53	3.74	3.55	3.10	2.74	2.46	2.13	1.77	1.43	1.24	1.18	1.07	1.10	1.38	1.69	2.01	2.37	2.90	3.30	3.21	2.74	2.35	2.18	2.16	2.17	2.11	2.00	1.91	1.84	1.74	1.68	1.75	1.73	1.57	1.47	1.50	1.57	1.52	1.49	1.48	2.12	1.41	1.23	0.95	0.79	0.81	0.83	0.88	1.11	1.45	1.73	2.00	2.35	2.81	3.17	3.33	3.37	3.35	3.14	2.69	2.29	2.11	2.03	1.92	1.77	1.53	1.23	1.00	0.81	0.53	0.23	0.35	0.83	1.19	1.45	1.88	2.35	2.93	3.29	3.29
3.67	3.28	2.58	2.17	1.87	1.60	1.49	1.39	1.09	0.92	0.99	1.21	1.35	1.08	0.87	0.90	1.06	1.16	1.22	1.33	1.51	1.67	1.84	2.07	2.28	2.55	2.98	3.40	3.45	3.08	2.60	2.31	2.12	1.99	1.78	1.18	0.68	0.78	1.17	1.46	1.76	2.04	2.32	2.81	3.48	3.82	3.71	3.18	2.54	2.22	2.07	1.84	1.53	1.26	1.14	1.12	1.05	1.18	1.53	1.83	2.05	2.28	2.71	3.15	3.19	2.85	2.49	2.31	2.23	2.11	1.95	1.81	1.78	1.73	1.60	1.55	1.67	1.70	1.52	1.35	1.38	1.50	1.56	1.52	1.42	1.33	1.23	1.09	1.04	1.09	1.07	1.05	1.23	1.58	1.84	2.12	2.49	2.90	3.12	3.08	2.83	2.70	2.80	2.83	2.76	2.48	2.11	1.93	1.91	1.85	1.63	1.32	0.98	0.65	0.39	0.34	0.63	1.10	1.39	1.60	1.87	2.30	2.97	3.36	3.36
3.56	3.22	2.62	2.22	1.90	1.59	1.39	1.26	0.99	0.77	0.84	1.04	1.03	0.75	0.70	0.76	1.02	1.13	1.23	1.42	1.65	1.85	2.04	2.22	2.41	2.65	3.00	3.36	3.47	3.19	2.64	2.21	1.97	1.77	1.49	0.96	0.72	0.95	1.26	1.51	1.80	2.15	2.57	3.25	3.84	3.88	3.39	2.65	2.12	1.92	1.87	1.70	1.37	1.11	1.01	1.02	0.99	1.23	1.58	1.76	1.85	1.99	2.40	2.95	3.23	3.08	2.70	2.40	2.12	1.87	1.68	1.65	1.71	1.66	1.51	1.47	1.61	1.65	1.51	1.40	1.94	1.65	1.87	1.86	2.16	1.39	1.21	1.16	1.25	1.30	1.21	1.22	1.48	1.76	2.03	2.46	2.85	2.97	2.77	2.33	2.08	2.15	2.35	2.67	2.92	2.75	2.31	2.12	2.16	2.12	1.87	1.47	1.02	0.68	0.53	0.61	0.98	1.36	1.64	1.84	2.00	2.31	2.99	3.39	3.39
3.50	3.22	2.67	2.25	1.89	1.55	1.33	1.22	0.98	0.77	0.79	0.87	0.73	0.71	0.79	0.98	1.13	1.27	1.43	1.61	1.83	2.04	2.20	2.35	2.55	2.78	3.03	3.34	3.48	3.20	2.54	2.13	1.94	1.71	1.34	1.01	0.99	1.22	1.44	1.66	1.96	2.36	2.95	3.70	4.01	3.70	2.93	2.27	1.85	1.68	1.69	1.58	1.23	0.91	0.84	0.84	0.87	1.16	1.43	1.48	1.51	1.67	2.14	2.86	3.36	3.28	2.77	2.27	1.90	1.68	1.63	1.68	1.70	1.55	1.36	1.46	1.66	1.79	1.49	1.52	1.70	2.08	2.40	2.27	2.15	1.51	1.31	1.29	1.37	1.38	1.30	1.34	1.57	1.87	2.34	2.77	2.83	2.54	1.99	1.60	1.61	1.81	2.12	2.67	3.16	3.11	2.78	2.57	2.46	2.30	2.01	1.56	1.05	0.79	0.72	0.88	1.20	1.54	1.89	2.18	2.38	2.64	3.05	3.23	3.23
3.56	3.26	2.64	2.17	1.80	1.49	1.36	1.30	1.09	0.91	1.24	0.88	0.89	0.92	1.06	1.23	1.39	1.57	1.73	1.86	2.04	2.22	2.35	2.52	2.73	2.88	3.03	3.32	3.49	3.20	2.64	2.28	2.10	1.82	1.45	1.26	1.32	1.50	1.67	1.88	2.19	2.63	3.33	3.97	3.97	3.29	2.53	1.96	1.62	1.50	1.55	1.45	1.06	0.71	0.71	0.70	0.77	1.01	1.18	1.26	1.40	1.64	2.12	2.93	3.50	3.34	2.65	2.07	1.80	1.74	1.82	1.84	1.65	1.36	1.20	1.30	1.46	1.52	1.61	1.89	2.33	2.75	2.78	2.52	1.84	1.51	1.37	1.35	1.40	1.43	1.40	1.48	1.76	2.22	2.69	2.73	2.32	1.77	1.29	1.21	1.42	1.72	2.20	2.94	3.49	3.50	3.10	2.64	2.33	2.06	1.74	1.31	0.98	0.90	0.93	1.17	1.51	1.91	2.37	2.72	2.87	2.94	2.89	2.83	2.83
3.69	3.30	2.51	2.01	1.66	1.45	1.40	1.33	1.11	0.94	0.87	0.92	1.05	1.19	1.37	1.54	1.73	1.90	2.02	2.13	2.27	2.40	2.53	2.71	2.86	2.88	2.98	3.33	3.51	3.18	2.67	2.32	2.06	1.73	1.45	1.35	1.45	1.61	1.79	2.02	2.33	2.82	3.56	3.97	3.68	2.84	2.16	1.72	1.45	1.38	1.46	1.30	0.84	0.56	0.66	0.66	0.79	0.99	1.18	1.37	1.60	1.87	2.32	3.03	3.44	3.20	2.48	2.05	1.97	2.03	2.03	1.79	1.40	1.18	1.23	1.44	1.62	1.78	2.06	2.52	2.95	3.04	2.73	2.12	1.66	1.41	1.32	1.32	1.41	1.49	1.53	1.65	2.02	2.49	2.62	2.18	1.48	1.10	1.04	1.21	1.54	1.95	2.57	3.24	3.73	3.66	2.98	2.30	1.95	1.71	1.39	1.07	0.98	1.02	1.17	1.53	2.03	2.51	2.88	3.02	2.95	2.73	2.39	2.15	2.15
3.81	3.29	2.39	1.87	1.57	1.39	1.34	1.21	0.98	0.83	1.51	0.95	1.17	1.30	1.58	1.77	1.95	2.10	2.20	2.26	2.33	2.47	2.66	2.82	2.83	2.76	2.95	3.40	3.47	3.00	2.44	2.07	1.75	1.45	1.29	1.29	1.43	1.65	1.84	2.07	2.41	2.91	3.55	3.79	3.29	2.43	1.86	1.55	1.35	1.33	1.33	1.11	0.68	0.51	0.65	0.75	0.93	1.15	1.43	1.64	1.86	2.17	2.58	3.08	3.24	2.98	2.44	2.25	2.31	2.28	1.98	1.51	1.18	1.25	1.56	1.82	2.04	2.31	2.68	3.04	3.13	2.87	2.36	1.82	1.48	1.30	1.25	1.29	1.43	1.57	1.64	1.79	2.16	2.44	2.13	1.41	1.01	1.03	1.28	1.64	2.00	2.43	2.94	3.42	3.68	3.47	2.67	1.99	1.70	1.48	1.18	0.96	1.01	1.11	1.37	1.92	2.49	2.78	2.84	2.74	2.50	2.12	1.88	1.80	1.80
3.82	3.29	2.30	1.76	1.49	1.29	1.17	0.98	0.76	0.69	0.72	0.96	1.21	1.42	1.59	1.74	1.90	2.02	2.05	2.07	2.18	2.42	2.66	2.70	2.57	2.59	3.03	3.50	3.38	2.77	2.23	1.88	1.60	1.35	1.30	1.36	1.54	1.77	1.92	2.09	2.37	2.81	3.40	3.58	3.06	2.19	1.67	1.49	1.42	1.38	1.28	1.07	0.74	0.64	0.77	0.95	1.15	1.40	1.66	1.85	2.11	2.51	2.90	3.14	3.06	2.76	2.52	2.52	2.51	2.27	1.80	1.38	1.35	1.73	2.14	2.41	2.67	2.90	3.07	3.10	2.88	2.45	2.01	1.63	1.81	1.22	1.18	1.26	1.46	1.64	1.73	1.88	2.18	2.17	1.56	1.11	1.17	1.49	1.83	2.16	2.49	2.81	3.09	3.34	3.48	3.24	2.49	1.85	1.56	1.40	1.17	0.95	1.00	1.16	1.58	2.22	2.59	2.55	2.27	2.11	1.94	1.70	1.80	1.94	1.94
3.84	3.25	2.21	1.66	1.35	1.14	1.01	0.77	0.49	0.47	0.57	0.89	1.11	1.27	1.39	1.50	1.63	1.69	1.66	1.71	1.99	2.35	2.50	2.35	2.14	2.44	3.21	3.66	3.35	2.64	2.15	1.89	1.71	1.56	1.49	1.51	1.62	1.80	1.87	1.95	2.14	2.57	3.23	3.49	3.02	2.13	1.66	1.62	1.63	1.54	1.42	1.27	1.03	0.92	0.96	1.10	1.32	1.60	1.87	2.16	2.54	2.94	3.14	3.09	2.85	2.61	2.61	2.73	2.60	2.24	1.89	1.76	2.01	2.41	2.68	2.87	3.00	3.04	2.96	2.75	2.45	2.10	1.79	1.50	1.28	1.16	1.12	1.24	1.48	1.66	1.78	1.93	2.07	1.81	1.31	1.33	1.70	1.97	2.21	2.47	2.70	2.81	2.85	3.01	3.31	3.18	2.48	1.82	1.56	1.43	1.25	1.04	1.04	1.25	1.76	2.18	2.19	1.92	1.63	1.58	1.54	1.63	2.09	2.42	2.42
3.79	3.17	2.13	1.56	1.23	1.02	0.87	0.59	0.28	0.28	0.50	0.82	1.00	1.10	1.17	1.25	1.34	1.43	1.55	1.72	2.02	2.30	2.30	2.04	1.97	2.52	3.48	3.84	3.39	2.54	2.07	1.86	1.73	1.65	1.57	1.50	1.50	1.62	1.64	1.68	1.87	2.41	3.14	3.48	3.09	2.34	1.93	1.91	1.92	1.82	1.70	1.53	1.28	1.12	1.07	1.18	1.39	1.72	2.13	2.59	2.95	3.10	3.03	2.73	2.42	2.45	2.78	2.90	2.64	2.24	2.13	2.28	2.52	2.71	2.83	2.90	2.87	2.71	2.48	2.28	2.07	1.82	1.59	1.64	1.18	1.07	1.08	1.26	1.52	1.70	1.81	1.91	1.89	1.55	1.38	1.69	1.99	2.13	2.31	2.49	2.57	2.45	2.34	2.67	3.23	3.22	2.53	1.80	1.52	1.38	1.22	1.06	1.07	1.28	1.64	1.69	1.47	1.30	1.26	1.36	1.49	1.85	2.54	2.96	2.96
3.64	3.08	2.08	1.50	1.16	0.95	0.74	0.41	0.19	0.29	0.59	0.85	1.01	1.10	1.11	1.13	1.00	1.36	1.65	1.94	2.17	2.29	2.18	1.98	2.09	2.82	3.76	3.96	3.37	2.43	1.98	1.78	1.62	1.48	1.37	1.27	1.20	1.31	1.41	1.51	1.79	2.43	3.24	3.56	3.19	2.52	2.19	2.12	2.08	1.96	1.73	1.47	1.25	1.17	1.15	1.29	1.53	1.93	2.46	2.89	2.98	2.84	2.57	2.17	2.05	2.43	3.00	3.07	2.61	2.19	2.21	2.38	2.49	2.54	2.59	2.59	2.47	2.22	2.00	1.88	1.74	1.54	1.35	1.16	1.53	1.67	1.03	1.29	1.57	1.74	1.81	1.85	1.75	1.50	1.54	1.84	2.01	2.09	2.19	2.23	2.17	1.98	1.96	2.48	3.16	3.24	2.55	1.81	1.50	1.38	1.24	1.11	1.12	1.22	1.30	1.17	1.10	1.13	1.22	1.39	1.65	2.13	2.87	3.29	3.29
3.45	2.99	2.09	1.49	1.15	0.91	0.61	0.31	0.24	0.45	0.74	0.97	1.16	1.23	1.21	1.21	1.07	1.46	1.81	2.09	2.27	2.34	2.24	2.14	2.40	3.17	3.91	3.97	3.26	2.32	1.87	1.69	1.51	1.25	1.06	1.04	1.06	1.24	1.40	1.62	2.02	2.73	3.46	3.66	3.20	2.53	2.21	2.15	2.05	1.83	1.54	1.30	1.18	1.19	1.23	1.43	1.72	2.20	2.72	2.90	2.65	2.30	2.03	1.78	1.96	2.60	3.20	3.16	2.55	2.15	2.16	2.23	2.24	2.25	2.28	2.25	2.10	1.84	1.65	1.57	1.48	1.31	1.13	0.94	0.75	1.67	1.02	1.33	1.59	1.72	1.77	1.80	1.68	1.53	1.60	1.80	1.92	1.90	1.81	1.73	1.67	1.67	1.86	2.40	3.01	3.13	2.65	2.02	1.75	1.70	1.61	1.40	1.26	1.18	1.15	1.14	1.21	1.32	1.45	1.62	1.91	2.32	2.99	3.40	3.40
3.34	2.91	2.06	1.49	1.15	0.84	0.53	0.40	0.42	0.67	0.93	1.18	1.36	1.40	1.41	1.43	1.50	1.65	1.88	2.11	2.28	2.42	2.47	2.51	2.80	3.45	3.97	3.88	3.17	2.27	1.82	1.62	1.41	1.13	0.98	1.07	1.25	1.52	1.73	1.97	2.40	3.03	3.59	3.66	3.12	2.47	2.21	2.13	1.92	1.63	1.42	1.28	1.21	1.24	1.29	1.53	1.88	2.38	2.78	2.66	2.19	1.91	1.72	1.65	2.01	2.74	3.35	3.20	2.52	2.16	2.12	2.08	2.06	2.08	2.07	2.02	1.85	1.56	1.37	1.37	1.35	1.17	1.01	0.88	0.76	0.86	1.18	1.47	1.65	1.72	1.77	1.79	1.67	1.53	1.54	1.64	1.67	1.51	1.36	1.33	1.43	1.65	2.01	2.41	2.79	2.96	2.81	2.53	2.37	2.22	1.95	1.57	1.34	1.26	1.29	1.41	1.52	1.58	1.67	1.82	2.07	2.42	2.98	3.33	3.33
3.28	2.84	2.01	1.42	1.06	0.72	0.54	0.53	0.68	0.95	1.19	1.38	1.46	1.48	1.53	1.62	1.70	1.79	1.92	2.12	2.32	2.56	2.76	2.88	3.16	3.68	4.02	3.78	3.08	2.30	1.88	1.66	1.49	1.31	1.25	1.35	1.56	1.83	2.01	2.22	2.59	3.11	3.55	3.54	3.04	2.47	2.23	2.07	1.76	1.46	1.33	1.26	1.23	1.30	1.37	1.67	2.10	2.53	2.65	2.29	1.81	1.67	1.56	1.60	2.05	2.88	3.43	3.16	2.47	2.17	2.07	1.96	1.93	1.93	1.86	1.81	1.66	1.35	1.15	1.22	1.29	1.17	1.06	1.02	1.02	1.22	1.51	1.68	1.74	1.79	1.84	1.84	1.71	1.53	1.46	1.45	1.36	1.23	1.20	1.29	1.54	1.88	2.18	2.40	2.60	2.84	3.02	3.04	2.76	2.29	1.80	1.44	1.32	1.33	1.39	1.52	1.60	1.62	1.68	1.87	2.11	2.44	2.97	3.25	3.25
3.23	2.79	1.94	1.33	0.92	0.60	0.54	0.60	0.65	1.17	1.34	1.44	1.48	1.56	1.67	1.79	1.88	1.92	2.01	2.18	2.42	2.71	2.90	3.10	3.44	3.88	3.99	3.63	2.91	2.29	1.95	1.79	1.73	1.63	1.54	1.54	1.64	1.81	1.94	2.13	2.49	3.02	3.42	3.42	3.01	2.49	2.20	1.94	1.59	1.35	1.23	1.14	1.16	1.32	1.47	1.86	2.27	2.44	2.23	1.81	1.56	1.49	1.45	1.67	2.26	3.08	3.41	3.03	2.38	2.12	2.00	1.87	1.85	1.80	1.65	1.57	1.50	1.29	1.30	1.21	1.27	1.78	1.08	1.16	1.35	1.68	1.91	1.86	1.81	1.86	1.92	1.90	1.78	1.57	1.43	1.35	1.28	1.28	1.38	1.51	1.70	1.94	2.16	2.32	2.49	2.85	3.33	3.38	2.82	2.10	1.64	1.42	1.36	1.35	1.33	1.37	1.37	1.37	1.49	1.74	2.02	2.39	2.99	3.31	3.31
3.19	2.72	1.83	1.20	0.76	0.52	0.48	0.59	0.90	1.17	1.31	1.36	1.47	1.64	1.81	1.96	2.05	2.10	2.16	2.27	2.49	2.80	3.01	3.30	3.67	3.87	3.78	3.31	2.67	2.20	1.93	1.83	1.82	1.70	1.57	1.49	1.49	1.58	1.72	2.01	2.44	2.92	3.27	3.32	3.01	2.52	2.13	1.80	1.47	1.26	1.15	1.04	1.05	1.23	1.52	1.91	2.15	2.04	1.62	1.48	1.46	1.35	1.46	1.87	2.47	3.07	3.30	2.92	2.32	2.04	1.94	1.79	1.74	1.72	1.52	1.36	1.36	1.35	1.22	1.22	1.23	1.13	1.14	1.42	1.81	2.15	2.23	1.99	1.88	1.98	2.03	1.94	1.78	1.58	1.44	1.37	1.33	1.37	1.46	1.50	1.60	1.81	2.07	2.26	2.48	3.01	3.66	3.60	2.77	2.01	1.66	1.50	1.39	1.29	1.16	1.12	1.13	1.21	1.40	1.70	2.02	2.43	3.09	3.46	3.46
3.12	2.62	1.67	1.06	0.65	0.50	0.45	0.58	0.83	1.02	1.12	1.25	1.47	1.72	1.92	2.05	2.15	2.25	2.29	2.35	2.55	2.88	3.15	3.53	3.77	3.67	3.34	2.91	2.42	2.07	1.85	1.75	1.67	1.53	1.45	1.41	1.40	1.51	1.75	2.10	2.46	2.79	3.06	3.23	3.08	2.57	2.05	1.65	1.33	1.18	1.16	1.13	1.13	1.35	1.46	1.70	1.74	1.46	1.22	1.36	1.39	1.26	1.50	1.95	2.35	2.83	3.14	2.92	2.33	1.95	1.87	1.76	1.66	1.62	1.45	1.29	1.25	1.37	1.24	1.31	1.37	1.32	1.40	1.79	2.25	2.54	2.47	2.19	2.13	2.26	2.20	1.96	1.74	1.55	1.42	1.33	1.22	1.18	1.24	1.26	1.42	1.73	2.04	2.26	2.59	3.29	3.89	3.65	2.70	1.97	1.59	1.37	1.21	1.11	1.03	1.07	1.22	1.40	1.60	1.82	2.10	2.55	3.20	3.53	3.53
3.02	2.48	1.54	0.96	0.58	0.53	0.49	0.64	0.84	0.98	1.08	1.24	1.50	1.76	1.96	2.09	2.22	2.35	2.42	2.46	2.64	2.97	3.35	3.72	3.75	3.39	2.96	2.56	2.19	1.91	1.75	1.65	1.52	1.37	1.33	1.40	1.45	1.61	1.87	2.18	2.41	2.60	2.87	3.18	3.15	2.58	1.89	1.44	1.25	1.26	1.38	1.48	1.41	1.35	1.39	1.39	1.28	1.13	1.15	1.34	1.32	1.26	1.49	1.85	2.18	2.62	3.02	2.91	2.38	1.99	1.87	1.74	1.54	1.40	1.29	1.21	1.18	1.26	1.41	1.56	1.67	1.70	1.79	2.19	2.68	2.92	2.81	2.63	2.62	2.57	2.24	1.87	1.65	1.48	1.33	1.18	1.01	1.00	1.12	1.24	1.51	1.83	2.08	2.31	2.75	3.54	3.97	3.55	2.55	1.81	1.38	1.12	0.98	0.97	1.01	1.18	1.38	1.52	1.61	1.76	2.05	2.53	3.22	3.62	3.62
2.88	2.35	1.46	0.89	0.56	0.56	0.58	0.76	0.96	1.10	1.21	1.38	1.64	1.85	1.99	2.13	2.27	2.46	2.61	2.66	2.80	3.13	3.56	3.83	3.65	3.14	2.67	2.33	2.03	1.84	1.76	1.70	1.55	1.37	1.30	1.37	1.46	1.62	1.88	2.13	2.24	2.36	2.71	3.17	3.18	2.48	1.72	1.46	1.50	1.66	1.82	1.83	1.63	1.42	1.35	1.25	1.21	1.23	1.35	1.42	1.39	1.42	1.63	1.92	2.27	2.64	2.89	2.82	2.48	2.17	1.96	1.71	1.38	1.15	1.12	1.16	1.25	1.47	1.70	1.92	2.11	2.21	2.34	2.78	3.26	3.38	3.21	3.04	2.89	2.58	2.06	1.70	1.50	1.34	1.14	0.94	0.86	0.98	1.20	1.44	1.73	1.93	2.12	2.38	2.90	3.71	4.01	3.41	2.36	1.61	1.25	1.08	0.99	0.98	1.01	1.13	1.22	1.27	1.34	1.57	1.95	2.48	3.28	3.74	3.74
2.75	2.23	1.38	0.81	0.58	0.60	0.69	0.91	1.14	1.32	1.48	1.68	1.88	2.01	2.10	2.24	2.40	2.64	2.82	2.90	3.05	3.35	3.69	3.77	3.41	2.85	2.46	2.23	2.03	1.93	1.91	1.85	1.67	1.51	1.41	1.41	1.45	1.62	1.85	1.95	1.97	2.13	2.60	3.17	3.20	2.54	1.95	1.91	2.04	2.07	2.02	1.85	1.57	1.39	1.33	1.38	1.45	1.53	1.62	1.66	1.69	1.82	2.06	2.36	2.64	2.73	2.71	2.69	2.53	2.24	1.87	1.51	1.20	1.07	1.15	1.31	1.49	1.79	2.15	2.54	2.82	2.93	3.07	3.41	3.64	3.53	3.17	2.84	2.57	2.22	1.84	1.55	1.36	1.18	0.94	0.80	0.86	1.08	1.31	1.53	1.71	1.88	2.13	2.44	3.02	3.83	4.05	3.34	2.25	1.64	1.45	1.33	1.15	1.07	0.99	1.01	1.04	1.12	1.28	1.57	1.99	2.57	3.40	3.82	3.82
2.61	2.12	1.30	0.74	0.63	0.66	0.82	1.09	1.35	1.59	1.82	2.03	2.18	2.24	2.30	2.46	2.66	2.93	3.11	3.15	3.23	3.44	3.62	3.52	3.08	2.61	2.35	2.21	2.09	2.04	2.01	1.91	1.75	1.64	1.54	1.47	1.49	1.61	1.71	1.71	1.80	2.07	2.58	3.17	3.27	2.79	2.34	2.23	2.18	2.02	1.82	1.59	1.39	1.34	1.34	1.42	1.52	1.62	1.76	1.86	1.98	2.21	2.46	2.65	2.68	2.46	2.24	2.46	2.49	2.14	1.67	1.35	1.22	1.23	1.40	1.60	1.83	2.29	2.88	3.37	3.56	3.55	3.51	3.52	3.43	3.09	2.57	2.21	1.97	1.76	1.57	1.40	1.24	1.06	0.89	0.86	0.99	1.20	1.35	1.45	1.59	1.83	2.18	2.58	3.22	3.96	4.08	3.32	2.36	1.92	1.76	1.53	1.25	1.12	1.02	1.06	1.17	1.31	1.51	1.76	2.11	2.69	3.45	3.82	3.82
2.48	2.03	1.21	0.73	0.68	0.74	0.95	1.27	1.61	1.93	2.18	2.31	2.37	2.42	2.53	2.75	3.03	3.30	3.41	3.31	3.21	3.27	3.34	3.17	2.79	2.47	2.30	2.19	2.07	2.02	1.97	1.85	1.70	1.57	1.44	1.39	1.43	1.51	1.56	1.66	1.85	2.11	2.59	3.18	3.35	2.93	2.40	2.13	1.92	1.70	1.50	1.32	1.20	1.20	1.22	1.30	1.45	1.59	1.77	1.91	2.09	2.36	2.50	2.44	2.17	1.77	1.70	2.23	2.44	2.09	1.63	1.42	1.45	1.58	1.80	1.99	2.29	2.91	3.59	3.87	3.78	3.57	3.34	3.10	2.81	2.38	1.99	1.71	1.49	1.29	1.19	1.16	1.09	0.97	0.89	0.95	1.11	1.28	1.38	1.45	1.64	1.95	2.32	2.79	3.46	4.19	4.11	3.16	2.28	1.91	1.67	1.36	1.18	1.14	1.10	1.22	1.38	1.52	1.67	1.86	2.18	2.77	3.46	3.78	3.78
2.37	1.92	1.14	0.79	0.77	0.87	1.17	1.58	1.99	2.23	2.32	2.30	2.33	2.45	2.70	3.05	3.38	3.57	3.51	3.26	3.04	2.98	2.97	2.85	2.64	2.43	2.24	2.09	2.02	1.99	1.91	1.77	1.55	1.37	1.27	1.29	1.35	1.40	1.49	1.64	1.78	2.01	2.52	3.19	3.38	2.92	2.31	1.95	1.75	1.56	1.40	1.27	1.12	1.06	1.11	1.26	1.46	1.60	1.73	1.91	2.13	2.28	2.17	1.83	1.50	1.34	1.53	2.09	2.35	2.12	1.77	1.66	1.82	2.06	2.29	2.49	2.86	3.51	3.89	3.80	3.37	2.90	2.59	2.41	2.22	1.93	1.67	1.49	1.25	0.98	0.90	0.93	0.96	0.95	0.95	1.04	1.23	1.40	1.55	1.70	1.94	2.24	2.53	3.00	3.77	4.34	3.96	2.70	1.94	1.63	1.37	1.13	1.06	1.10	1.12	1.26	1.39	1.49	1.63	1.86	2.24	2.84	3.43	3.69	3.69
2.26	1.82	1.10	0.88	0.88	1.09	1.57	1.99	2.17	2.14	2.05	2.03	2.19	2.51	2.90	3.29	3.51	3.52	3.31	3.02	2.82	2.71	2.68	2.64	2.58	2.45	2.20	2.00	1.99	2.00	1.90	1.71	1.49	1.37	1.37	1.38	1.38	1.34	1.36	1.48	1.67	1.96	2.53	3.17	3.35	2.95	2.35	1.95	1.74	1.59	1.45	1.30	1.12	1.05	1.14	1.33	1.51	1.62	1.74	1.95	2.13	1.98	1.56	1.26	1.23	1.37	1.70	2.06	2.26	2.25	2.13	2.13	2.41	2.72	2.94	3.17	3.52	3.83	3.75	3.28	2.73	2.25	2.07	2.04	1.97	1.77	1.51	1.35	1.18	0.98	0.89	0.89	0.96	1.02	1.08	1.18	1.39	1.63	1.90	2.13	2.35	2.55	2.72	3.17	4.00	4.23	3.44	2.30	1.73	1.51	1.27	1.02	0.95	1.02	1.04	1.13	1.24	1.39	1.62	1.92	2.34	2.90	3.37	3.56	3.56
2.15	1.72	1.05	0.88	0.94	1.36	1.79	1.96	1.88	1.72	1.73	1.94	2.30	2.74	3.15	3.44	3.47	3.26	2.96	2.72	2.57	2.48	2.48	2.54	2.60	2.51	2.19	1.97	1.99	2.04	1.90	1.70	1.56	1.56	1.58	1.50	1.38	1.25	1.26	1.47	1.76	2.07	2.51	3.05	3.31	3.04	2.44	1.96	1.71	1.56	1.39	1.22	1.10	1.13	1.25	1.42	1.58	1.69	1.82	1.99	1.97	1.52	1.09	1.14	1.40	1.70	1.93	2.12	2.35	2.55	2.64	2.83	3.14	3.35	3.47	3.63	3.75	3.69	3.27	2.74	2.33	2.04	1.97	2.00	1.98	1.79	1.48	1.23	1.08	1.02	0.96	0.98	1.06	1.12	1.18	1.32	1.59	1.91	2.25	2.47	2.62	2.75	2.90	3.33	3.88	3.89	2.95	2.14	1.81	1.61	1.32	1.07	1.02	1.07	1.05	1.10	1.24	1.46	1.74	2.03	2.43	2.96	3.32	3.42	3.42
2.01	1.56	0.90	0.81	0.95	1.39	1.64	1.61	1.44	1.59	1.83	2.19	2.65	3.11	3.44	3.53	3.35	3.01	2.69	2.48	2.37	2.29	2.30	2.45	2.59	2.55	2.22	1.97	2.00	2.05	1.88	1.68	1.62	1.62	1.57	1.40	1.24	1.12	1.24	1.54	1.79	1.97	2.27	2.84	3.30	3.15	2.49	1.92	1.65	1.50	1.34	1.24	1.26	1.34	1.43	1.52	1.66	1.74	1.79	1.82	1.61	1.13	1.01	1.36	1.79	2.04	2.22	2.48	2.79	2.93	3.10	3.40	3.58	3.56	3.49	3.47	3.38	3.10	2.72	2.38	2.12	1.99	1.99	2.03	2.01	1.81	1.52	1.18	0.92	0.88	0.95	1.07	1.16	1.20	1.30	1.50	1.81	2.16	2.47	2.65	2.73	2.79	2.93	3.29	3.68	3.56	2.88	2.26	2.00	1.79	1.52	1.34	1.26	1.22	1.15	1.24	1.44	1.67	1.87	2.09	2.47	2.98	3.27	3.31	3.31
1.78	1.33	0.77	0.79	1.00	1.32	1.50	1.55	1.67	1.90	2.22	2.62	3.11	3.49	3.62	3.49	3.17	2.77	2.45	2.27	2.18	2.10	2.14	2.33	2.55	2.61	2.32	1.98	1.93	1.97	1.80	1.64	1.58	1.51	1.38	1.19	1.07	1.00	1.19	1.44	1.61	1.74	2.01	2.64	3.24	3.21	2.58	1.99	1.74	1.65	1.58	1.60	1.68	1.66	1.59	1.55	1.58	1.56	1.50	1.40	1.20	1.05	1.23	1.71	2.15	2.44	2.73	3.00	3.08	3.12	3.35	3.59	3.57	3.31	3.11	2.94	2.75	2.55	2.38	2.20	2.01	1.94	1.96	2.00	1.97	1.79	1.50	1.14	0.85	0.83	0.98	1.15	1.23	1.30	1.47	1.76	2.10	2.42	2.64	2.68	2.61	2.60	2.75	3.19	3.62	3.44	2.85	2.33	2.09	1.89	1.67	1.47	1.31	1.24	1.19	1.34	1.52	1.66	1.80	2.02	2.43	2.97	3.24	3.25	3.25
1.47	1.12	0.82	0.94	1.18	1.43	1.61	1.76	1.99	2.27	2.61	3.06	3.50	3.65	3.52	3.24	2.88	2.50	2.20	2.04	1.96	1.92	2.00	2.17	2.47	2.67	2.46	1.97	1.75	1.78	1.69	1.57	1.52	1.42	1.21	0.99	1.03	0.98	1.19	1.39	1.58	1.75	2.01	2.54	3.08	3.16	2.76	2.31	2.07	2.01	1.98	1.96	1.92	1.76	1.56	1.46	1.39	1.32	1.30	1.27	1.22	1.31	1.63	2.13	2.59	2.97	3.18	3.12	2.95	3.01	3.39	3.57	3.31	2.86	2.61	2.51	2.40	2.29	2.24	2.10	1.94	1.87	1.89	1.91	1.87	1.70	1.44	1.13	0.95	0.96	1.09	1.21	1.28	1.42	1.70	2.07	2.37	2.54	2.57	2.42	2.18	2.27	2.66	3.26	3.71	3.43	2.74	2.28	2.04	1.84	1.60	1.32	1.16	1.12	1.08	1.20	1.29	1.40	1.59	1.92	2.40	2.99	3.24	3.21	3.21
1.23	1.11	1.03	1.15	1.35	1.59	1.79	1.99	2.25	2.57	2.97	3.39	3.62	3.52	3.19	2.87	2.56	2.18	1.89	1.74	1.72	1.77	1.85	2.01	2.38	2.70	2.58	1.97	1.59	1.60	1.61	1.55	1.52	1.40	1.11	0.87	0.92	1.08	1.32	1.54	1.78	1.97	2.16	2.49	2.91	3.09	2.95	2.67	2.45	2.26	2.09	1.93	1.79	1.59	1.47	1.41	1.32	1.46	1.54	1.55	1.60	1.79	2.14	2.62	3.07	3.31	3.14	2.70	2.56	2.89	3.41	3.55	3.16	2.60	2.35	2.31	2.28	2.21	2.14	2.04	1.93	1.85	1.84	1.83	1.77	1.64	1.39	1.13	1.04	1.08	1.18	1.25	1.34	1.56	1.92	2.22	2.30	2.26	2.13	1.81	1.67	2.07	2.75	3.50	3.83	3.39	2.68	2.22	1.91	1.66	1.44	1.20	1.09	1.06	0.96	1.02	1.10	1.27	1.53	1.90	2.51	3.16	3.27	3.13	3.13
1.30	1.28	1.23	1.23	1.39	1.65	1.91	2.17	2.49	2.85	3.23	3.48	3.46	3.16	2.78	2.53	2.29	1.94	1.60	1.49	1.58	1.62	1.61	1.86	2.30	2.67	2.64	2.12	1.55	1.50	1.63	1.67	1.61	1.43	1.08	0.91	0.93	1.16	1.43	1.71	1.97	2.11	2.19	2.40	2.78	3.07	3.09	2.88	2.55	2.22	1.97	1.86	1.80	1.67	1.54	1.47	1.48	1.60	1.70	1.74	1.88	2.15	2.54	2.98	3.34	3.26	2.67	2.27	2.44	2.94	3.46	3.53	3.08	2.49	2.22	2.22	2.23	2.17	2.06	1.96	1.89	1.85	1.79	1.78	1.72	1.58	1.35	1.12	1.08	1.16	1.27	1.32	1.42	1.65	1.94	1.96	1.80	1.72	1.56	1.30	1.45	2.12	2.95	3.71	3.87	3.28	2.60	2.19	1.85	1.52	1.24	1.07	1.07	1.06	0.98	1.06	1.21	1.41	1.69	2.16	2.84	3.40	3.23	2.88	2.88
1.44	1.40	1.31	1.26	1.44	1.76	2.04	2.35	2.71	3.05	3.31	3.35	3.15	2.80	2.47	2.28	2.07	1.75	1.39	1.32	1.47	1.45	1.44	1.77	2.24	2.60	2.68	2.33	1.75	1.60	1.78	1.87	1.75	1.50	1.27	1.08	0.99	1.21	1.54	1.85	2.03	2.03	2.03	2.23	2.65	3.07	3.19	2.96	2.54	2.20	2.06	2.04	1.97	1.79	1.61	1.54	1.58	1.57	1.69	1.81	2.04	2.34	2.72	3.11	3.31	2.94	2.31	2.22	2.56	3.00	3.44	3.48	3.02	2.39	2.08	2.10	2.18	2.11	1.98	1.87	1.79	1.77	1.70	1.74	1.72	1.53	1.29	1.13	1.17	1.28	1.34	1.34	1.40	1.53	1.57	1.33	1.20	1.20	1.16	1.19	1.55	2.28	3.13	3.83	3.83	3.14	2.49	2.13	1.82	1.44	1.05	0.85	0.93	0.95	0.96	1.13	1.33	1.60	2.01	2.56	3.17	3.45	3.01	2.52	2.52
1.49	1.37	1.29	1.35	1.61	1.94	2.23	2.54	2.86	3.12	3.23	3.12	2.86	2.53	2.25	2.05	1.86	1.55	1.21	1.18	1.31	1.31	1.41	1.79	2.25	2.58	2.75	2.58	2.16	2.00	2.09	2.07	1.88	1.65	1.37	1.20	1.21	1.44	1.78	1.94	1.88	1.78	1.84	2.14	2.60	3.09	3.30	3.09	2.67	2.38	2.25	2.13	1.94	1.74	1.60	1.58	1.58	1.67	1.81	1.97	2.18	2.42	2.73	3.07	3.16	2.69	2.23	2.32	2.58	2.88	3.25	3.36	2.98	2.31	1.91	1.96	2.09	2.05	1.93	1.81	1.70	1.62	1.59	1.68	1.74	1.50	1.22	1.14	1.24	1.33	1.32	1.27	1.22	1.16	1.02	0.88	0.93	1.04	1.15	1.39	1.81	2.50	3.36	3.94	3.78	3.04	2.41	2.06	1.75	1.37	0.94	0.67	0.73	0.76	0.87	1.10	1.40	1.78	2.27	2.84	3.27	3.30	2.70	2.20	2.20
1.50	1.34	1.29	1.45	1.79	2.13	2.39	2.64	2.90	3.08	3.07	2.88	2.62	2.32	2.03	1.82	1.59	1.30	1.06	1.10	1.24	1.35	1.59	1.99	2.40	2.69	2.91	2.82	2.47	2.26	2.20	2.10	1.92	1.75	1.57	1.46	1.52	1.74	1.87	1.74	1.59	1.64	1.86	2.18	2.62	3.17	3.46	3.27	2.80	2.44	2.24	2.05	1.86	1.71	1.60	1.60	1.66	1.77	1.87	1.99	2.14	2.32	2.62	3.00	3.06	2.61	2.21	2.26	2.41	2.62	3.01	3.22	2.99	2.35	1.85	1.86	2.00	2.00	1.90	1.79	1.69	1.61	1.50	1.64	1.72	1.48	1.16	1.05	1.09	1.15	1.16	1.12	1.01	0.89	0.85	0.88	1.03	1.22	1.46	1.80	2.27	3.00	3.74	3.98	3.62	2.85	2.31	1.97	1.66	1.28	0.83	0.62	0.65	0.75	0.97	1.27	1.65	2.04	2.47	2.96	3.25	3.11	2.44	1.95	1.95
1.53	1.40	1.38	1.58	1.93	2.22	2.39	2.58	2.84	2.99	2.91	2.68	2.42	2.11	1.80	1.53	1.27	1.08	1.07	1.20	1.37	1.59	1.89	2.26	2.60	2.87	3.05	2.95	2.57	2.26	2.11	2.00	1.87	1.77	1.64	1.57	1.61	1.67	1.56	1.35	1.42	1.67	1.88	2.13	2.62	3.32	3.66	3.37	2.75	2.32	2.10	1.93	1.80	1.71	1.61	1.62	1.88	1.66	1.71	1.83	1.96	2.13	2.52	2.95	3.04	2.62	2.15	2.06	2.19	2.42	2.83	3.15	3.03	2.50	1.92	1.80	1.90	1.94	1.87	2.05	1.74	1.61	1.51	1.62	1.69	1.46	1.11	0.87	0.81	0.89	0.99	1.00	0.92	0.91	1.01	1.14	1.34	1.62	1.98	2.42	3.00	3.68	4.06	3.90	3.30	2.64	2.19	1.83	1.46	1.05	0.69	0.67	0.76	1.00	1.35	1.70	2.00	2.24	2.54	2.93	3.16	2.97	2.24	1.74	1.74
1.58	1.45	1.44	1.63	1.91	2.10	2.27	2.54	2.83	2.95	2.77	2.48	2.22	1.88	1.47	1.13	1.02	1.12	1.32	1.48	1.64	1.85	2.12	2.46	2.76	2.98	3.07	2.91	2.54	2.21	2.04	1.94	1.86	1.80	1.70	1.57	1.84	1.31	1.19	1.21	1.44	1.65	1.77	2.02	2.67	3.53	3.83	3.37	2.61	2.15	1.91	1.73	1.61	1.56	1.56	1.60	1.57	1.52	1.59	1.73	1.88	2.15	2.57	2.96	3.06	2.67	2.12	1.93	2.04	2.36	2.81	3.20	3.12	2.61	2.09	1.86	1.86	1.89	1.90	1.87	1.76	1.64	1.63	1.72	1.69	1.41	1.04	0.82	0.77	0.87	0.97	0.97	0.95	1.02	1.18	1.35	1.65	2.08	2.54	2.99	3.55	4.02	4.02	3.52	2.90	2.40	2.00	1.64	1.27	0.88	0.66	0.73	0.92	1.29	1.61	1.83	2.00	2.15	2.43	2.81	3.04	2.85	2.09	1.65	1.65
1.60	1.46	1.44	1.59	1.78	2.00	2.30	2.69	2.92	2.88	2.59	2.26	1.97	1.56	1.09	0.99	1.11	1.46	1.65	1.74	1.87	2.06	2.33	2.62	2.83	2.96	2.98	2.82	2.53	2.26	2.10	1.99	1.89	1.81	1.66	1.49	1.33	1.16	1.08	1.24	1.45	1.61	1.76	2.09	2.83	3.68	3.90	3.30	2.43	1.96	1.74	1.51	1.36	1.31	1.34	1.43	1.47	1.50	1.64	1.79	1.99	2.27	2.60	2.93	3.06	2.75	2.13	1.85	1.98	2.40	2.90	3.31	3.23	2.69	2.18	1.98	1.97	2.02	2.03	1.96	1.82	1.74	1.82	1.87	1.68	1.31	1.04	0.97	1.01	1.05	1.04	0.99	1.02	1.14	1.34	1.63	2.07	2.53	2.84	3.19	3.70	3.98	3.65	2.99	2.54	2.17	1.77	1.45	1.16	0.87	0.74	0.76	0.91	1.17	1.33	1.50	1.67	1.89	2.25	2.65	2.94	2.83	2.15	1.70	1.70
1.58	1.48	1.47	1.59	1.78	2.13	2.56	2.88	2.91	2.67	2.30	1.92	1.60	1.19	0.89	1.03	1.42	1.68	1.77	1.85	2.01	2.24	2.47	2.63	2.72	2.79	2.86	2.82	2.64	2.38	2.17	2.01	1.88	1.74	1.52	1.36	1.28	1.17	1.12	1.29	1.51	1.71	1.87	2.21	2.91	3.68	3.83	3.15	2.26	1.87	1.67	1.45	1.33	1.32	1.33	1.38	1.46	1.55	1.71	1.88	2.07	2.24	2.48	2.85	3.09	2.82	2.13	1.81	1.97	2.44	2.95	3.38	3.30	2.74	2.20	2.00	2.03	2.08	2.07	1.98	1.92	1.96	2.04	1.97	1.67	1.34	1.23	1.31	1.33	1.24	1.13	1.09	1.18	1.38	1.70	2.11	2.48	2.62	2.66	3.01	3.67	3.83	3.26	2.58	2.22	1.93	1.60	1.30	1.02	0.79	0.73	0.74	0.80	0.96	1.10	1.29	1.50	1.79	2.14	2.53	2.89	2.91	2.26	1.76	1.76
1.56	1.51	1.53	1.67	1.93	2.37	2.75	2.88	2.69	2.31	1.88	1.44	1.10	0.92	1.01	1.22	1.48	1.63	1.77	1.90	2.11	2.33	2.43	2.42	2.46	2.63	2.84	2.93	2.77	2.45	2.16	1.94	1.79	1.66	1.43	1.25	1.22	1.15	1.16	1.39	1.67	1.83	1.94	2.26	2.92	3.57	3.65	3.06	2.33	1.94	1.75	1.63	1.66	1.72	1.68	1.58	1.57	1.60	1.72	1.85	1.95	2.02	2.30	2.81	3.14	2.88	2.12	1.79	1.93	2.35	2.89	3.40	3.32	2.70	2.15	1.96	2.02	2.06	1.97	1.88	1.90	2.00	2.04	1.90	1.65	1.48	1.52	1.59	1.51	1.35	1.24	1.27	1.42	1.70	2.09	2.36	2.37	2.20	2.25	2.83	3.63	3.75	2.98	2.30	1.99	1.75	1.46	1.18	0.92	0.65	0.58	0.62	0.78	1.02	1.24	1.42	1.60	1.84	2.15	2.53	2.94	3.00	2.34	1.80	1.80
1.57	1.56	1.60	1.77	2.10	2.53	2.75	2.66	2.30	1.84	1.38	0.98	0.82	0.91	1.12	1.35	1.49	1.62	1.78	1.96	2.16	2.31	2.27	2.18	2.32	2.63	2.92	3.01	2.80	2.45	2.15	1.90	1.74	1.64	1.42	1.17	1.12	1.09	1.17	1.51	1.77	1.88	2.00	2.39	2.96	3.45	3.49	3.07	2.55	2.23	2.07	2.06	2.10	2.06	1.88	1.64	1.55	1.54	1.60	1.66	1.71	1.79	2.15	2.80	3.18	2.92	2.15	1.79	1.84	2.14	2.75	3.35	3.31	2.66	2.06	1.89	2.01	2.04	1.89	1.79	1.85	1.94	1.88	1.71	1.54	1.49	1.55	1.55	1.42	1.31	1.29	1.38	1.54	1.82	2.07	2.04	1.79	1.74	2.15	2.84	3.59	3.62	2.84	2.16	1.90	1.67	1.35	1.06	0.79	0.47	0.38	0.52	0.83	1.15	1.39	1.58	1.79	2.01	2.25	2.65	3.07	3.05	2.37	1.83	1.83
1.62	1.63	1.70	1.91	2.24	2.52	2.52	2.26	1.83	1.37	0.99	0.79	0.83	1.07	1.31	1.51	1.64	1.74	1.88	2.05	2.22	2.27	2.18	2.17	2.38	2.70	2.98	3.01	2.79	2.50	2.23	2.01	1.87	1.73	1.44	1.09	1.01	1.04	1.25	1.62	1.85	1.97	2.18	2.59	3.05	3.39	3.41	3.11	2.72	2.46	2.35	2.29	2.16	1.92	1.65	1.47	1.44	1.41	1.41	1.44	1.47	1.60	2.04	2.78	3.23	3.00	2.29	1.82	1.74	1.95	2.59	3.28	3.31	2.67	1.98	1.79	1.97	2.02	1.79	1.68	1.79	1.89	1.73	1.49	1.35	1.29	1.30	1.24	1.14	1.17	1.27	1.37	1.50	1.66	1.70	1.54	1.48	1.78	2.45	3.16	3.62	3.43	2.76	2.21	1.92	1.61	1.20	0.86	0.58	0.31	0.33	0.62	0.96	1.22	1.42	1.64	1.94	2.18	2.42	2.86	3.20	3.03	2.33	1.85	1.85
1.68	1.68	1.77	1.99	2.21	2.27	2.11	1.79	1.40	1.05	0.85	0.84	1.02	1.28	1.52	1.74	1.88	1.96	2.09	2.26	2.38	2.35	2.28	2.30	2.46	2.78	3.08	3.10	2.91	2.66	2.40	2.21	2.06	1.84	1.43	1.06	0.98	1.10	1.43	1.79	2.00	2.17	2.42	2.77	3.07	3.31	3.35	3.15	2.81	2.57	2.40	2.20	1.94	1.70	1.52	1.44	1.41	1.35	1.28	1.28	1.35	1.54	2.03	2.84	3.31	3.12	2.45	1.87	1.67	1.81	2.45	3.19	3.28	2.67	1.89	1.63	1.81	1.91	1.71	1.61	1.76	1.86	1.63	1.31	1.15	1.08	1.04	0.99	1.00	1.12	1.24	1.34	1.43	1.48	1.48	1.51	1.76	2.26	2.92	3.57	3.68	3.22	2.64	2.22	1.90	1.47	0.99	0.62	0.45	0.40	0.56	0.93	1.21	1.33	1.50	1.76	2.09	2.34	2.62	3.04	3.23	2.94	2.23	1.82	1.82
1.75	1.71	1.75	1.87	1.91	1.81	1.60	1.38	1.13	0.93	0.92	1.04	1.25	1.49	1.75	2.01	2.18	2.28	2.42	2.57	2.60	2.50	2.37	2.32	2.47	2.91	3.29	3.25	2.98	2.68	2.41	2.20	1.99	1.70	1.31	1.09	1.08	1.29	1.66	1.98	2.17	2.34	2.54	2.76	2.97	3.20	3.34	3.21	2.88	2.58	2.32	2.06	1.83	1.72	1.65	1.53	1.42	1.33	1.26	1.31	1.44	1.69	2.22	2.95	3.38	3.20	2.50	1.87	1.62	1.78	2.39	3.08	3.19	2.59	1.80	1.50	1.65	1.78	1.71	1.65	1.75	1.82	1.59	1.24	1.10	1.07	1.05	1.06	1.10	1.18	1.24	1.32	1.41	1.48	1.58	1.83	2.16	2.62	3.24	3.70	3.55	2.96	2.48	2.13	1.76	1.20	0.78	0.59	0.59	0.71	0.94	1.25	1.39	1.44	1.64	1.92	2.21	2.47	2.77	3.07	3.11	2.77	2.06	1.65	1.65
1.81	1.75	1.70	1.67	1.55	1.39	1.24	1.16	1.10	1.05	1.13	1.29	1.51	1.79	2.08	2.35	2.53	2.65	2.75	2.75	2.63	2.39	2.17	2.14	2.46	3.09	3.46	3.24	2.79	2.46	2.21	2.00	1.77	1.46	1.18	1.16	1.24	1.50	1.84	2.08	2.21	2.32	2.43	2.56	2.80	3.13	3.39	3.32	2.96	2.54	2.19	1.95	1.78	1.68	1.58	1.43	1.34	1.28	1.26	1.35	1.54	1.87	2.41	3.03	3.38	3.17	2.46	1.84	1.70	1.91	2.41	2.89	2.95	2.47	1.80	1.55	1.60	1.66	1.72	1.75	1.76	1.76	1.61	1.37	1.27	1.28	1.26	1.25	1.25	1.24	1.24	1.32	1.44	1.53	1.68	1.92	2.25	2.76	3.35	3.59	3.23	2.65	2.32	2.02	1.57	0.99	0.69	0.67	0.79	0.93	1.08	1.30	1.43	1.52	1.72	1.98	2.27	2.58	2.86	3.01	2.92	2.55	1.87	1.53	1.53
1.88	1.76	1.60	1.48	1.37	1.30	1.22	1.20	1.28	1.37	1.44	1.58	1.84	2.15	2.45	2.69	2.84	2.87	2.77	2.56	2.25	1.92	1.81	2.04	2.56	3.25	3.47	3.05	2.56	2.34	2.18	2.02	1.82	1.48	1.24	1.28	1.39	1.62	1.89	2.06	2.12	2.15	2.18	2.35	2.68	3.11	3.47	3.45	3.01	2.43	2.03	1.81	1.65	1.48	1.29	1.17	1.16	1.17	1.18	1.30	1.54	1.96	2.55	3.08	3.31	3.09	2.50	1.97	1.85	2.02	2.33	2.54	2.59	2.37	1.98	1.79	1.66	1.58	1.75	1.87	1.78	1.69	1.64	1.64	1.67	1.61	1.47	1.39	1.38	1.33	1.34	1.39	1.51	1.57	1.71	2.00	2.40	2.94	3.36	3.40	2.98	2.44	2.14	1.85	1.41	0.87	0.64	0.66	0.77	0.86	0.99	1.28	1.56	1.74	1.93	2.20	2.51	2.75	2.89	2.86	2.66	2.31	1.81	1.59	1.59
1.90	1.70	1.44	1.39	1.37	1.38	1.38	1.43	1.59	1.71	1.76	1.91	2.19	2.53	2.79	2.92	2.91	2.74	2.40	1.99	1.65	1.51	1.72	2.16	2.71	3.36	3.44	2.96	2.56	2.42	2.33	2.21	2.00	1.65	1.41	1.42	1.47	1.64	1.84	1.94	1.92	1.88	1.96	2.24	2.61	3.09	3.55	3.54	2.97	2.26	1.89	1.72	1.52	1.28	1.06	0.95	1.00	1.07	1.15	1.32	1.62	2.10	2.66	3.07	3.21	3.02	2.57	2.09	1.89	1.94	2.08	2.10	2.20	2.28	2.18	2.03	1.78	1.62	1.92	2.08	1.89	1.74	1.83	2.09	2.11	1.78	1.51	1.44	1.46	1.45	1.44	1.50	1.58	1.66	1.88	2.23	2.63	3.03	3.28	3.22	2.80	2.29	1.95	1.65	1.27	0.80	0.57	0.61	0.71	0.81	1.01	1.42	1.81	2.10	2.36	2.60	2.76	2.83	2.76	2.55	2.33	2.15	1.98	1.91	1.91
1.86	1.61	1.37	1.38	1.41	1.48	1.57	1.72	1.90	2.01	2.09	2.26	2.56	2.85	2.94	2.87	2.66	2.31	1.86	1.46	1.32	1.51	1.94	2.39	2.94	3.55	3.49	3.01	2.67	2.54	2.42	2.24	1.99	1.70	1.49	1.47	1.50	1.62	1.74	1.73	1.63	1.64	1.90	2.25	2.61	3.14	3.60	3.51	2.81	2.10	1.85	1.74	1.46	1.19	1.03	0.96	1.02	1.10	1.21	1.41	1.75	2.21	2.67	2.96	3.08	3.01	2.64	2.13	1.83	1.81	1.80	1.79	2.00	2.26	2.32	2.22	1.97	1.91	2.27	2.36	2.12	2.02	2.22	2.46	2.24	1.69	1.46	1.48	1.54	1.53	1.52	1.53	1.61	1.72	1.95	2.26	2.59	2.96	3.18	3.07	2.63	2.17	1.85	1.53	1.16	0.75	0.55	0.63	0.78	0.94	1.21	1.65	2.13	2.51	2.70	2.72	2.66	2.56	2.35	2.04	1.97	2.12	2.28	2.39	2.39
1.80	1.61	1.43	1.45	1.53	1.69	1.87	2.02	2.14	2.21	2.32	2.52	2.76	2.89	2.80	2.54	2.20	1.81	1.41	1.20	1.37	1.85	2.31	2.68	3.25	3.72	3.54	2.97	2.59	2.40	2.22	2.03	1.83	1.63	1.46	1.44	1.45	1.51	1.53	1.44	1.43	1.69	2.05	2.36	2.72	3.26	3.61	3.40	2.68	2.08	1.90	1.78	1.51	1.36	1.27	1.18	1.17	1.20	1.32	1.54	1.84	2.25	2.63	2.86	2.99	2.98	2.69	2.20	1.91	1.82	1.74	1.76	2.03	2.31	2.40	2.34	2.24	2.35	2.59	2.56	2.34	2.29	2.43	2.43	1.98	1.50	1.41	1.50	1.57	1.54	1.52	1.50	1.58	1.66	1.83	2.11	2.49	2.94	3.15	2.96	2.45	2.08	1.84	1.49	1.05	0.72	0.65	0.78	0.96	1.21	1.60	2.06	2.49	2.80	2.73	2.40	2.17	2.01	1.74	1.57	1.76	2.20	2.59	2.77	2.77
1.80	1.66	1.52	1.55	1.69	1.89	2.05	2.13	2.18	2.23	2.37	2.57	2.69	2.65	2.42	2.08	1.71	1.37	1.18	1.25	1.66	2.20	2.56	2.91	3.46	3.74	3.39	2.78	2.38	2.16	2.01	1.89	1.74	1.54	1.39	1.38	1.36	1.33	1.33	1.35	1.57	1.97	2.24	2.46	2.83	3.35	3.59	3.27	2.60	2.17	2.00	1.85	1.70	1.64	1.51	1.30	1.24	1.29	1.45	1.65	1.91	2.29	2.62	2.82	2.93	2.93	2.72	2.39	2.16	1.96	1.80	1.83	2.08	2.28	2.41	2.47	2.53	2.63	2.63	2.45	2.26	2.23	2.27	2.09	1.63	1.38	1.43	1.53	1.57	1.52	1.50	1.47	1.53	1.59	1.75	2.07	2.55	2.99	3.12	2.85	2.33	2.01	1.80	1.38	0.93	0.75	0.83	1.01	1.25	1.61	2.05	2.42	2.68	2.74	2.40	1.85	1.64	1.51	1.38	1.47	1.85	2.37	2.81	3.00	3.00
1.81	1.69	1.55	1.59	1.75	1.91	2.00	2.02	2.02	2.10	2.30	2.48	2.46	2.29	2.00	1.62	1.28	1.15	1.25	1.56	1.99	2.39	2.69	3.01	3.51	3.62	3.14	2.56	2.18	2.00	1.93	1.88	1.72	1.46	1.28	1.29	1.31	1.31	1.41	1.61	1.91	2.14	2.29	2.48	2.87	3.37	3.54	3.15	2.56	2.22	2.01	1.83	1.74	1.68	1.45	1.24	1.24	1.36	1.52	1.70	1.97	2.35	2.64	2.79	2.87	2.88	2.78	2.57	2.30	1.98	1.81	1.84	2.02	2.19	2.40	2.62	2.76	2.70	2.43	2.19	2.06	2.03	1.97	1.75	1.50	1.44	1.53	1.58	1.56	1.47	1.40	1.45	1.52	1.60	1.82	2.22	2.70	3.04	3.06	2.77	2.27	1.89	1.65	1.23	0.81	0.77	0.96	1.20	1.49	1.86	2.26	2.49	2.51	2.37	1.92	1.46	1.33	1.31	1.37	1.68	2.15	2.59	2.94	3.08	3.08
1.81	1.74	1.63	1.65	1.68	1.80	1.84	1.85	1.88	2.03	2.25	2.34	2.20	1.92	1.55	1.19	1.11	1.31	1.67	2.01	2.28	2.55	2.78	3.05	3.43	3.44	2.89	2.34	2.02	1.92	1.92	1.88	1.71	1.44	1.20	1.17	1.30	1.44	1.65	1.84	1.98	2.09	2.21	2.45	2.87	3.33	3.44	3.05	2.50	2.16	1.97	1.80	1.68	1.55	1.30	1.21	1.28	1.43	1.58	1.77	2.08	2.43	2.65	2.74	2.79	2.83	2.81	2.62	2.25	1.86	1.73	1.77	1.93	2.13	2.37	2.69	2.86	2.65	2.28	2.08	1.98	1.91	1.82	1.73	1.69	1.69	1.69	1.64	1.53	1.41	1.38	1.45	1.55	1.70	2.00	2.43	2.83	3.03	2.99	2.68	2.15	1.70	1.44	1.13	0.81	0.83	1.06	1.32	1.60	1.94	2.28	2.33	2.11	1.92	1.60	1.24	1.21	1.33	1.58	2.04	2.47	2.85	2.98	2.96	2.96
1.89	1.86	1.78	1.73	1.71	1.64	1.71	1.77	1.87	2.06	2.18	2.11	1.86	1.52	1.20	1.08	1.31	1.77	2.10	2.30	2.47	2.65	2.83	3.05	3.30	3.23	2.73	2.20	1.95	1.94	1.96	1.89	1.76	1.55	1.29	1.22	1.37	1.52	1.64	1.71	1.76	1.90	2.12	2.42	2.85	3.26	3.34	2.95	2.38	2.07	1.95	1.82	1.67	1.49	1.23	1.18	1.32	1.49	1.65	1.84	2.15	2.46	2.60	2.63	2.68	2.75	2.76	2.59	2.22	1.85	1.70	1.72	1.87	2.03	2.22	2.66	2.85	2.59	2.26	2.09	1.98	1.89	1.85	1.86	1.88	1.83	1.72	1.61	1.46	1.37	1.39	1.49	1.61	1.82	2.16	2.56	2.83	2.92	2.85	2.51	1.94	1.51	1.28	1.07	0.87	0.93	1.16	1.39	1.69	2.01	2.15	1.97	1.68	1.59	1.38	1.16	1.25	1.54	1.94	2.40	2.78	3.07	2.92	2.65	2.65
2.05	1.96	1.79	1.69	1.64	1.64	1.70	1.80	1.92	2.00	1.90	1.70	1.46	1.24	1.18	1.32	1.65	2.02	2.23	2.38	2.52	2.63	2.79	3.04	3.22	3.06	2.63	2.23	2.09	2.12	2.13	2.05	1.96	1.79	1.61	1.50	1.51	1.50	1.48	1.51	1.58	1.78	2.10	2.46	2.85	3.19	3.22	2.82	2.29	2.04	1.94	1.78	1.63	1.50	1.27	1.20	1.38	1.58	1.72	1.91	2.19	2.39	2.47	2.49	2.58	2.69	2.72	2.59	2.29	1.94	1.73	1.73	1.83	1.93	2.14	2.57	2.75	2.58	2.30	2.11	1.99	1.90	1.87	1.86	1.79	1.64	1.50	1.41	1.34	1.35	1.44	1.55	1.69	1.93	2.27	2.59	2.74	2.74	2.63	2.30	1.81	1.44	1.23	1.06	0.93	1.01	1.22	1.43	1.70	1.87	1.82	1.57	1.43	1.40	1.30	1.26	1.51	1.95	2.40	2.75	3.02	3.11	2.69	2.24	2.24
2.12	1.92	1.63	1.52	1.48	1.51	1.62	1.73	1.77	1.67	1.43	1.30	1.28	1.27	1.45	1.74	1.95	2.10	2.22	2.37	2.47	2.53	2.76	3.11	3.19	2.90	2.60	2.44	2.40	2.39	2.36	2.30	2.21	2.03	1.87	1.70	1.56	1.46	1.42	1.45	1.54	1.80	2.21	2.56	2.85	3.09	3.07	2.70	2.29	2.06	1.87	1.66	1.58	1.62	1.53	1.46	1.57	1.70	1.82	2.00	2.17	2.25	2.30	2.42	2.57	2.69	2.69	2.58	2.35	2.01	1.78	1.76	1.83	1.91	2.06	2.36	2.62	2.59	2.37	2.11	1.90	1.85	1.89	1.85	1.67	1.46	1.30	1.23	1.27	1.39	1.54	1.68	1.86	2.12	2.39	2.56	2.60	2.54	2.45	2.23	1.86	1.50	1.22	1.04	0.97	1.07	1.24	1.42	1.59	1.64	1.57	1.46	1.41	1.42	1.44	1.59	1.98	2.45	2.77	2.93	3.05	2.94	2.37	1.96	1.96
2.07	1.80	1.48	1.39	1.35	1.39	1.48	1.53	1.47	1.33	1.23	1.25	1.36	1.58	1.99	2.30	2.32	2.26	2.27	2.37	2.45	2.54	2.89	3.26	3.13	2.77	2.67	2.65	2.56	2.47	2.40	2.30	2.15	1.99	1.85	1.67	1.52	1.45	1.41	1.41	1.56	1.94	2.35	2.63	2.80	2.97	2.93	2.60	2.29	2.03	1.73	1.59	1.73	1.94	1.96	1.83	1.75	1.77	1.88	2.00	2.04	2.05	2.20	2.45	2.63	2.70	2.64	2.56	2.39	2.12	1.89	1.80	1.80	1.80	1.82	2.07	2.48	2.62	2.43	2.10	1.82	1.84	1.98	1.93	1.73	1.50	1.30	1.24	1.31	1.45	1.62	1.81	2.04	2.25	2.37	2.40	2.40	2.39	2.38	2.26	1.92	1.50	1.17	1.01	1.01	1.12	1.28	1.45	1.59	1.63	1.64	1.62	1.60	1.67	1.82	2.08	2.45	2.73	2.83	2.84	2.86	2.66	2.16	1.90	1.90
1.96	1.74	1.47	1.36	1.34	1.39	1.46	1.45	1.38	1.34	1.43	1.61	1.86	2.24	2.65	2.80	2.68	2.50	2.44	2.53	2.63	2.81	3.18	3.34	3.01	2.67	2.71	2.73	2.54	2.38	2.26	2.10	1.95	1.84	1.73	1.58	1.48	1.45	1.38	1.40	1.67	2.11	2.43	2.56	2.68	2.86	2.81	2.50	2.23	1.94	1.70	1.80	2.15	2.37	2.25	1.96	1.76	1.78	1.86	1.90	1.89	1.96	2.21	2.48	2.65	2.65	2.56	2.52	2.44	2.23	1.97	1.79	1.69	1.62	1.63	1.88	2.38	2.62	2.47	2.16	1.92	1.98	2.12	2.05	1.84	1.62	1.42	1.36	1.41	1.49	1.64	1.82	2.00	2.12	2.13	2.11	2.18	2.32	2.43	2.31	1.87	1.37	1.08	1.00	1.05	1.18	1.41	1.67	1.81	1.86	1.87	1.82	1.80	1.93	2.13	2.35	2.56	2.63	2.59	2.60	2.62	2.47	2.15	1.98	1.98
1.93	1.76	1.51	1.41	1.42	1.49	1.57	1.60	1.61	1.73	1.97	2.25	2.58	2.91	3.11	3.02	2.75	2.58	2.62	2.76	2.92	3.11	3.31	3.24	2.81	2.55	2.69	2.71	2.49	2.29	2.12	1.95	1.80	1.72	1.62	1.49	1.42	1.40	1.36	1.46	1.82	2.14	2.28	2.36	2.58	2.82	2.73	2.41	2.16	1.95	1.89	2.17	2.50	2.53	2.22	1.89	1.79	1.82	1.84	1.83	1.86	1.97	2.17	2.40	2.57	2.54	2.44	2.50	2.50	2.31	2.01	1.73	1.57	1.52	1.57	1.83	2.31	2.56	2.50	2.30	2.14	2.15	2.18	2.06	1.86	1.66	1.48	1.44	1.47	1.51	1.62	1.75	1.85	1.90	1.90	1.92	2.08	2.35	2.50	2.28	1.71	1.21	1.00	1.00	1.09	1.31	1.69	1.97	2.03	2.00	1.92	1.80	1.76	1.89	2.08	2.20	2.27	2.29	2.34	2.49	2.60	2.51	2.23	2.06	2.06
1.97	1.80	1.57	1.50	1.53	1.61	1.70	1.81	1.98	2.24	2.55	2.83	3.03	3.12	3.09	2.80	2.45	2.42	2.59	2.76	2.93	3.07	3.13	2.97	2.57	2.44	2.66	2.69	2.44	2.21	2.04	1.89	1.78	1.71	1.59	1.43	1.32	1.28	1.31	1.48	1.72	1.89	1.99	2.21	2.65	2.92	2.75	2.39	2.14	2.06	2.17	2.45	2.62	2.52	2.20	2.00	1.97	1.94	1.88	1.85	1.87	1.93	2.03	2.28	2.48	2.42	2.36	2.49	2.53	2.38	2.07	1.69	1.48	1.45	1.54	1.82	2.20	2.43	2.51	2.47	2.31	2.21	2.15	1.99	1.80	1.62	1.47	1.45	1.49	1.52	1.60	1.69	1.76	1.79	1.82	1.87	2.08	2.40	2.52	2.18	1.54	1.12	0.99	1.04	1.21	1.58	1.98	2.10	1.99	1.82	1.64	1.47	1.50	1.70	1.89	1.99	2.06	2.18	2.39	2.64	2.78	2.64	2.25	2.02	2.02
2.02	1.84	1.60	1.56	1.62	1.69	1.82	2.03	2.32	2.63	2.84	2.94	2.94	2.85	2.67	2.32	2.05	2.15	2.34	2.54	2.76	2.88	2.88	2.69	2.35	2.36	2.67	2.67	2.36	2.13	2.04	1.96	1.90	1.84	1.70	1.46	1.25	1.20	1.23	1.36	1.53	1.72	1.96	2.37	2.88	3.07	2.80	2.37	2.14	2.18	2.35	2.57	2.66	2.51	2.28	2.17	2.12	2.01	1.90	1.84	1.81	1.83	1.95	2.20	2.36	2.29	2.35	2.53	2.59	2.45	2.12	1.66	1.40	1.37	1.51	1.79	2.05	2.28	2.52	2.60	2.46	2.29	2.15	1.96	1.79	1.61	1.47	1.46	1.50	1.51	1.54	1.61	1.68	1.73	1.78	1.85	2.08	2.41	2.49	2.11	1.49	1.13	1.07	1.19	1.48	1.88	2.05	1.92	1.65	1.41	1.22	1.20	1.41	1.71	1.92	2.07	2.24	2.46	2.71	2.91	2.94	2.70	2.18	1.88	1.88
2.05	1.83	1.59	1.59	1.69	1.80	2.02	2.33	2.61	2.75	2.75	2.65	2.54	2.42	2.26	1.99	1.82	1.94	2.12	2.38	2.69	2.83	2.77	2.49	2.19	2.35	2.70	2.61	2.28	2.13	2.11	2.08	2.02	1.92	1.74	1.48	1.25	1.18	1.19	1.32	1.56	1.85	2.20	2.67	3.09	3.16	2.79	2.29	2.09	2.20	2.42	2.65	2.71	2.54	2.31	2.19	2.08	1.94	1.82	1.76	1.72	1.77	1.91	2.08	2.17	2.21	2.42	2.63	2.67	2.50	2.09	1.63	1.37	1.31	1.46	1.71	1.92	2.16	2.49	2.71	2.63	2.38	2.14	1.94	1.81	1.65	1.47	1.45	1.50	1.48	1.47	1.54	1.61	1.65	1.70	1.79	2.06	2.41	2.47	2.10	1.52	1.20	1.20	1.41	1.74	1.91	1.81	1.55	1.27	1.09	1.11	1.30	1.63	1.94	2.20	2.45	2.67	2.86	3.00	3.04	2.95	2.65	2.06	1.69	1.69
2.01	1.82	1.62	1.66	1.77	1.94	2.26	2.55	2.66	2.58	2.43	2.29	2.18	2.10	1.98	1.78	1.70	1.86	2.08	2.36	2.72	2.93	2.78	2.33	2.10	2.41	2.69	2.53	2.25	2.18	2.18	2.10	1.97	1.82	1.64	1.40	1.22	1.19	1.22	1.42	1.73	2.02	2.40	2.91	3.23	3.15	2.69	2.12	1.94	2.14	2.44	2.71	2.77	2.56	2.27	2.07	1.90	1.73	1.65	1.64	1.66	1.71	1.81	1.91	2.02	2.22	2.54	2.74	2.72	2.46	1.99	1.62	1.35	1.25	1.39	1.62	1.79	2.01	2.43	2.83	2.80	2.42	2.08	1.90	1.77	1.57	1.39	1.40	1.47	1.45	1.45	1.53	1.59	1.60	1.64	1.78	2.10	2.42	2.45	2.12	1.60	1.28	1.30	1.53	1.73	1.65	1.40	1.21	1.07	1.09	1.32	1.63	1.94	2.25	2.56	2.83	3.00	3.08	3.06	2.98	2.84	2.53	1.89	1.52	1.52
1.99	1.85	1.72	1.74	1.83	2.04	2.37	2.52	2.41	2.21	2.08	1.95	1.86	1.80	1.72	1.64	1.75	1.99	2.20	2.45	2.86	3.10	2.75	2.15	2.13	2.51	2.65	2.48	2.27	2.18	2.17	2.09	1.94	1.78	1.59	1.34	1.14	1.16	1.27	1.53	1.82	2.10	2.54	3.07	3.26	3.03	2.50	1.94	1.78	2.06	2.44	2.74	2.79	2.55	2.23	1.97	1.72	1.51	1.47	1.53	1.58	1.63	1.68	1.81	2.01	2.31	2.66	2.82	2.69	2.32	1.91	1.59	1.31	1.21	1.34	1.55	1.70	1.90	2.37	2.94	2.92	2.39	1.99	1.83	1.66	1.44	1.34	1.40	1.45	1.42	1.44	1.55	1.61	1.60	1.68	1.89	2.18	2.43	2.45	2.15	1.68	1.35	1.34	1.49	1.53	1.33	1.15	1.15	1.24	1.42	1.70	1.98	2.24	2.56	2.87	3.08	3.17	3.13	2.97	2.80	2.66	2.32	1.70	1.39	1.39
2.03	1.93	1.83	1.81	1.87	2.08	2.31	2.28	2.02	1.81	1.71	1.63	1.56	1.54	1.60	1.76	2.04	2.31	2.47	2.68	3.05	3.14	2.60	2.08	2.25	2.53	2.54	2.42	2.26	2.16	2.14	2.08	1.98	1.83	1.61	1.30	1.10	1.17	1.33	1.60	1.89	2.20	2.66	3.13	3.19	2.81	2.27	1.80	1.68	1.99	2.44	2.74	2.75	2.51	2.19	1.89	1.62	1.45	1.41	1.43	1.49	1.57	1.66	1.85	2.09	2.38	2.71	2.80	2.59	2.21	1.86	1.57	1.30	1.22	1.33	1.49	1.62	1.84	2.35	3.00	2.97	2.33	1.94	1.77	1.57	1.45	1.46	1.49	1.46	1.41	1.46	1.58	1.63	1.65	1.77	1.99	2.23	2.44	2.47	2.18	1.71	1.37	1.30	1.39	1.38	1.25	1.25	1.43	1.63	1.83	2.05	2.26	2.48	2.75	3.01	3.17	3.19	3.03	2.73	2.53	2.43	2.12	1.55	1.33	1.33
2.11	2.02	1.90	1.86	1.90	2.02	2.11	1.97	1.68	1.51	1.49	1.48	1.49	1.59	1.86	2.21	2.51	2.68	2.76	2.85	2.99	2.93	2.39	2.07	2.23	2.36	2.31	2.32	2.30	2.21	2.14	2.08	2.02	1.84	1.58	1.36	1.27	1.34	1.48	1.74	2.03	2.30	2.70	3.07	3.02	2.60	2.10	1.72	1.65	1.98	2.49	2.74	2.68	2.44	2.16	1.86	1.65	1.56	1.47	1.40	1.43	1.55	1.68	1.89	2.14	2.42	2.67	2.71	2.50	2.16	1.85	1.56	1.32	1.23	1.31	1.45	1.58	1.83	2.35	2.98	2.95	2.35	1.96	1.76	1.67	1.68	1.66	1.57	1.47	1.42	1.50	1.60	1.64	1.67	1.77	1.99	2.27	2.47	2.47	2.18	1.68	1.32	1.24	1.33	1.37	1.38	1.52	1.74	1.92	2.08	2.24	2.35	2.48	2.73	3.00	3.14	3.08	2.76	2.39	2.25	2.25	1.98	1.51	1.32	1.32
2.19	2.08	1.93	1.87	1.86	1.87	1.87	1.75	1.57	1.52	1.59	1.67	1.81	2.10	2.49	2.82	2.95	2.90	2.81	2.71	2.64	2.60	2.38	2.16	2.16	2.11	2.06	2.23	2.39	2.33	2.17	2.08	2.00	1.83	1.67	1.60	1.53	1.52	1.59	1.82	2.05	2.28	2.65	2.94	2.84	2.48	2.05	1.72	1.72	2.10	2.55	2.71	2.59	2.38	2.16	1.93	1.79	1.74	1.62	1.49	1.48	1.55	1.67	1.86	2.13	2.38	2.53	2.57	2.46	2.16	1.84	1.55	1.30	1.20	1.29	1.44	1.59	1.85	2.33	2.89	2.96	2.49	2.06	1.92	1.97	1.97	1.76	1.57	1.48	1.46	1.52	1.59	1.61	1.62	1.72	2.02	2.33	2.47	2.43	2.12	1.60	1.27	1.22	1.33	1.42	1.51	1.67	1.84	1.97	2.07	2.10	2.10	2.23	2.61	2.98	3.10	2.93	2.53	2.21	2.13	2.13	1.91	1.48	1.32	1.32
2.25	2.11	1.92	1.85	1.78	1.73	1.73	1.71	1.66	1.71	1.85	2.08	2.38	2.71	2.98	3.11	2.98	2.71	2.54	2.33	2.23	2.40	2.48	2.34	2.16	1.98	1.91	2.14	2.45	2.45	2.21	2.05	1.97	1.88	1.80	1.72	1.57	1.49	1.52	1.72	1.95	2.22	2.59	2.81	2.68	2.40	2.08	1.79	1.84	2.21	2.53	2.60	2.48	2.34	2.22	2.06	1.94	1.88	1.78	1.62	1.55	1.56	1.65	1.80	2.05	2.26	2.34	2.44	2.46	2.20	1.86	1.55	1.29	1.21	1.31	1.47	1.63	1.87	2.30	2.85	3.02	2.66	2.24	2.16	2.22	2.05	1.68	1.52	1.47	1.44	1.50	1.57	1.59	1.61	1.74	2.07	2.35	2.43	2.34	2.03	1.54	1.25	1.22	1.33	1.45	1.56	1.69	1.77	1.80	1.79	1.72	1.75	2.05	2.58	3.03	3.13	2.88	2.51	2.24	2.11	2.04	1.85	1.48	1.31	1.31
2.25	2.11	1.92	1.83	1.74	1.69	1.73	1.76	1.76	1.83	2.09	2.44	2.75	2.94	3.02	2.90	2.55	2.29	2.19	1.98	1.99	2.33	2.56	2.50	2.25	1.97	1.82	2.03	2.46	2.52	2.25	2.05	1.99	1.94	1.83	1.63	1.40	1.34	1.41	1.64	1.93	2.26	2.60	2.69	2.47	2.29	2.17	1.93	1.95	2.21	2.45	2.46	2.36	2.33	2.32	2.16	2.01	1.91	1.77	1.63	1.55	1.52	1.59	1.72	1.90	2.05	2.13	2.38	2.53	2.30	1.91	1.59	1.35	1.27	1.36	1.53	1.69	1.90	2.33	2.91	3.10	2.77	2.38	2.28	2.20	1.88	1.55	1.47	1.44	1.42	1.50	1.57	1.60	1.64	1.77	2.07	2.32	2.37	2.27	1.98	1.51	1.23	1.21	1.33	1.43	1.50	1.57	1.57	1.52	1.49	1.55	1.74	2.16	2.71	3.13	3.20	2.93	2.54	2.22	2.01	1.89	1.73	1.47	1.36	1.36
2.24	2.12	1.97	1.86	1.74	1.70	1.76	1.80	1.84	2.01	2.38	2.70	2.83	2.84	2.73	2.46	2.17	2.05	1.93	1.76	1.89	2.26	2.57	2.62	2.33	1.90	1.71	1.96	2.44	2.54	2.33	2.11	2.02	1.97	1.83	1.55	1.27	1.27	1.42	1.68	2.01	2.34	2.59	2.52	2.21	2.16	2.28	2.16	2.05	2.18	2.34	2.36	2.30	2.36	2.40	2.25	2.06	1.87	1.67	1.51	1.42	1.41	1.50	1.62	1.73	1.86	2.08	2.48	2.66	2.39	1.96	1.63	1.41	1.32	1.40	1.57	1.69	1.89	2.39	2.95	3.13	2.78	2.40	2.24	2.02	1.69	1.46	1.42	1.43	1.44	1.50	1.57	1.62	1.68	1.80	2.07	2.30	2.31	2.22	1.97	1.49	1.22	1.24	1.36	1.43	1.46	1.48	1.44	1.41	1.53	1.76	2.02	2.41	2.88	3.21	3.25	2.96	2.49	2.12	1.90	1.75	1.62	1.52	1.48	1.48
2.25	2.18	2.04	1.90	1.75	1.73	1.80	1.85	1.98	2.29	2.63	2.76	2.70	2.60	2.45	2.20	2.03	1.92	1.73	1.65	1.84	2.18	2.59	2.74	2.38	1.84	1.66	1.93	2.40	2.53	2.38	2.17	2.01	1.94	1.81	1.52	1.26	1.29	1.48	1.75	2.07	2.39	2.54	2.31	1.94	2.03	2.38	2.38	2.16	2.14	2.28	2.35	2.35	2.40	2.42	2.27	2.05	1.82	1.60	1.40	1.26	1.27	1.42	1.56	1.70	1.92	2.25	2.63	2.73	2.42	1.96	1.63	1.40	1.30	1.38	1.55	1.64	1.88	2.41	2.95	3.10	2.78	2.41	2.18	1.91	1.63	1.43	1.40	1.43	1.45	1.51	1.60	1.67	1.74	1.86	2.10	2.24	2.22	2.16	1.93	1.48	1.25	1.31	1.43	1.50	1.56	1.60	1.59	1.67	1.92	2.18	2.35	2.60	2.97	3.24	3.25	2.95	2.49	2.15	1.89	1.69	1.60	1.61	1.63	1.63
2.34	2.27	2.10	1.91	1.77	1.78	1.86	1.94	2.18	2.53	2.71	2.65	2.52	2.45	2.31	2.10	1.95	1.78	1.64	1.71	1.94	2.26	2.66	2.79	2.45	1.95	1.74	1.91	2.29	2.46	2.40	2.23	2.04	1.90	1.76	1.55	1.36	1.37	1.53	1.77	2.10	2.40	2.42	2.03	1.67	1.91	2.42	2.53	2.29	2.14	2.26	2.38	2.38	2.36	2.33	2.21	2.02	1.80	1.59	1.34	1.18	1.24	1.42	1.61	1.84	2.11	2.40	2.66	2.68	2.37	1.93	1.59	1.35	1.26	1.36	1.52	1.66	1.95	2.44	2.89	3.04	2.81	2.46	2.15	1.87	1.65	1.48	1.40	1.41	1.46	1.55	1.65	1.73	1.79	1.89	2.05	2.12	2.10	2.06	1.91	1.56	1.35	1.39	1.50	1.59	1.71	1.81	1.91	2.09	2.31	2.42	2.49	2.67	2.99	3.22	3.23	2.95	2.51	2.14	1.83	1.63	1.61	1.67	1.69	1.69
2.46	2.34	2.10	1.90	1.79	1.83	1.93	2.06	2.39	2.64	2.64	2.49	2.40	2.34	2.16	1.95	1.83	1.75	1.78	1.93	2.11	2.34	2.63	2.75	2.51	2.07	1.82	1.87	2.13	2.36	2.40	2.31	2.10	1.87	1.72	1.62	1.52	1.48	1.55	1.77	2.13	2.34	2.15	1.64	1.44	1.83	2.40	2.64	2.46	2.20	2.24	2.34	2.30	2.21	2.17	2.13	2.03	1.85	1.59	1.31	1.20	1.29	1.46	1.67	1.92	2.14	2.37	2.59	2.60	2.31	1.91	1.56	1.32	1.24	1.34	1.53	1.75	2.02	2.36	2.75	2.98	2.88	2.52	2.13	1.87	1.71	1.52	1.40	1.42	1.50	1.59	1.67	1.75	1.81	1.87	1.95	1.99	1.96	1.97	1.95	1.73	1.51	1.50	1.58	1.67	1.80	1.95	2.13	2.31	2.36	2.33	2.40	2.65	2.94	3.15	3.21	2.94	2.45	2.04	1.73	1.58	1.59	1.66	1.69	1.69
2.52	2.36	2.08	1.89	1.83	1.90	2.00	2.15	2.43	2.56	2.46	2.32	2.28	2.18	1.91	1.81	1.87	1.89	1.93	1.96	2.02	2.21	2.53	2.74	2.60	2.18	1.87	1.83	1.99	2.23	2.36	2.35	2.16	1.88	1.75	1.71	1.62	1.52	1.60	1.78	2.10	2.08	1.67	1.30	1.37	1.82	2.37	2.73	2.63	2.30	2.22	2.25	2.17	2.08	2.04	2.07	2.09	1.93	1.59	1.29	1.24	1.34	1.49	1.68	1.91	2.13	2.34	2.55	2.56	2.26	1.87	1.53	1.27	1.19	1.30	1.53	1.75	1.91	2.13	2.57	2.96	2.97	2.59	2.13	1.89	1.73	1.51	1.40	1.46	1.57	1.63	1.68	1.73	1.79	1.82	1.85	1.86	1.82	1.92	2.05	1.93	1.69	1.62	1.67	1.75	1.87	2.02	2.14	2.15	2.01	2.01	2.30	2.63	2.87	3.09	3.17	2.88	2.36	1.97	1.69	1.55	1.58	1.66	1.70	1.70
2.54	2.39	2.13	1.94	1.89	1.96	2.04	2.14	2.29	2.35	2.26	2.18	2.14	1.92	1.72	1.86	2.00	1.93	1.81	1.71	1.77	2.09	2.56	2.85	2.67	2.22	1.93	1.86	1.90	2.07	2.28	2.37	2.25	2.00	1.82	1.71	1.56	1.46	1.51	1.74	1.88	1.63	1.29	1.28	1.53	1.90	2.37	2.79	2.75	2.44	2.29	2.24	2.14	2.03	1.98	2.06	2.14	1.97	1.60	1.36	1.31	1.39	1.53	1.77	2.05	2.22	2.35	2.52	2.51	2.17	1.80	1.47	1.16	1.09	1.28	1.50	1.66	1.76	1.98	2.47	2.95	3.02	2.63	2.17	1.93	1.74	1.52	1.45	1.54	1.65	1.69	1.70	1.73	1.76	1.78	1.78	1.77	1.81	1.98	2.18	2.11	1.86	1.70	1.69	1.74	1.82	1.91	1.92	1.83	1.77	1.94	2.35	2.65	2.82	3.03	3.12	2.78	2.25	1.88	1.63	1.53	1.57	1.66	1.70	1.70
2.60	2.48	2.21	1.98	1.91	1.95	2.02	2.07	2.12	2.17	2.15	2.16	2.01	1.73	1.72	1.94	1.95	1.74	1.56	1.54	1.74	2.21	2.74	2.97	2.68	2.21	1.99	1.89	1.85	1.94	2.18	2.37	2.35	2.11	1.83	1.61	1.46	1.38	1.45	1.59	1.60	1.40	1.35	1.55	1.77	2.01	2.42	2.83	2.84	2.60	2.40	2.27	2.15	2.05	2.01	2.09	2.14	1.98	1.72	1.49	1.39	1.44	1.62	1.93	2.16	2.20	2.25	2.41	2.40	2.09	1.72	1.36	1.03	1.04	1.27	1.45	1.58	1.70	1.94	2.42	2.90	3.02	2.72	2.32	2.02	1.78	1.61	1.59	1.69	1.74	1.74	1.71	1.71	1.75	1.77	1.78	1.83	1.94	2.12	2.29	2.24	1.96	1.69	1.59	1.58	1.63	1.70	1.72	1.74	1.86	2.12	2.40	2.57	2.72	2.99	3.08	2.72	2.21	1.85	1.60	1.52	1.58	1.65	1.67	1.67
2.71	2.53	2.18	1.93	1.85	1.91	1.99	2.00	2.01	2.11	2.19	2.13	1.86	1.63	1.70	1.80	1.73	1.58	1.52	1.64	1.98	2.45	2.94	3.04	2.61	2.17	2.01	1.87	1.76	1.82	2.07	2.34	2.40	2.16	1.79	1.57	1.47	1.43	1.46	1.52	1.55	1.56	1.66	1.78	1.90	2.12	2.48	2.83	2.88	2.67	2.44	2.28	2.15	2.05	2.01	2.07	2.11	2.04	1.84	1.56	1.40	1.47	1.68	1.95	2.04	1.99	2.10	2.33	2.35	2.05	1.61	1.19	0.95	1.06	1.28	1.41	1.52	1.67	1.89	2.29	2.80	3.05	2.91	2.53	2.07	1.73	1.69	1.80	1.83	1.81	1.75	1.69	1.69	1.74	1.78	1.85	1.94	2.05	2.19	2.33	2.27	1.94	1.57	1.41	1.39	1.46	1.59	1.69	1.79	1.93	2.06	2.17	2.36	2.68	3.04	3.11	2.77	2.28	1.88	1.61	1.53	1.59	1.63	1.62	1.62
2.75	2.48	2.03	1.84	1.82	1.92	1.99	1.96	1.97	2.07	2.10	1.97	1.71	1.57	1.62	1.67	1.66	1.66	1.77	2.02	2.32	2.68	3.05	2.96	2.43	2.11	2.00	1.81	1.65	1.73	1.98	2.27	2.38	2.20	1.86	1.69	1.64	1.59	1.56	1.59	1.68	1.73	1.73	1.79	1.95	2.19	2.50	2.79	2.85	2.66	2.46	2.32	2.20	2.06	1.97	2.01	2.09	2.07	1.87	1.54	1.38	1.48	1.68	1.84	1.85	1.89	2.12	2.38	2.35	1.95	1.41	1.02	0.94	1.10	1.28	1.39	1.53	1.71	1.88	2.20	2.77	3.17	3.09	2.59	1.92	1.66	1.87	2.03	1.92	1.81	1.72	1.65	1.68	1.73	1.79	1.89	1.95	2.03	2.18	2.30	2.20	1.84	1.44	1.25	1.26	1.39	1.54	1.64	1.72	1.82	1.89	2.03	2.36	2.85	3.20	3.18	2.81	2.28	1.84	1.58	1.53	1.59	1.62	1.61	1.61
2.65	2.35	1.96	1.86	1.92	2.00	2.01	1.94	1.92	2.05	1.96	1.83	1.66	1.63	1.72	1.80	1.88	2.01	2.22	2.41	2.53	2.74	2.93	2.72	2.31	2.13	1.98	1.74	1.61	1.71	1.92	2.16	2.33	2.26	2.05	1.89	1.80	1.68	1.60	1.61	1.67	1.66	1.67	1.83	2.05	2.30	2.56	2.75	2.77	2.65	2.50	2.38	2.26	2.10	1.96	1.99	2.07	2.01	1.81	1.52	1.37	1.49	1.66	1.75	1.80	2.00	2.30	2.45	2.22	1.66	1.14	0.92	0.96	1.14	1.31	1.44	1.60	1.79	1.97	2.28	2.86	3.31	3.15	2.46	1.80	1.79	2.18	2.23	1.97	1.78	1.69	1.66	1.69	1.75	1.82	1.90	1.92	1.99	2.17	2.25	2.11	1.75	1.34	1.15	1.20	1.33	1.43	1.53	1.68	1.83	1.97	2.25	2.73	3.18	3.33	3.15	2.72	2.19	1.78	1.57	1.55	1.62	1.64	1.64	1.64
2.51	2.31	2.04	2.04	2.13	2.13	2.04	1.92	1.87	1.99	1.91	1.83	1.78	1.84	1.98	2.09	2.22	2.37	2.47	2.48	2.43	2.51	2.65	2.55	2.34	2.17	1.95	1.73	1.67	1.77	1.89	2.07	2.28	2.35	2.22	2.00	1.80	1.64	1.54	1.52	1.55	1.60	1.74	1.98	2.21	2.43	2.60	2.66	2.66	2.61	2.50	2.38	2.26	2.09	1.94	1.97	2.02	1.92	1.76	1.53	1.42	1.53	1.67	1.77	1.92	2.19	2.41	2.32	1.85	1.28	0.97	0.93	1.03	1.20	1.38	1.51	1.64	1.83	2.07	2.42	2.96	3.33	3.05	2.33	1.95	2.18	2.48	2.34	1.99	1.78	1.71	1.72	1.75	1.80	1.87	1.90	1.91	2.01	2.17	2.22	2.04	1.64	1.23	1.10	1.17	1.27	1.40	1.58	1.82	2.06	2.33	2.72	3.16	3.37	3.27	2.95	2.51	2.15	1.84	1.65	1.62	1.65	1.65	1.63	1.63
2.47	2.37	2.26	2.30	2.32	2.20	2.02	1.91	1.88	1.91	1.94	1.93	1.94	2.07	2.19	2.26	2.33	2.38	2.35	2.21	2.08	2.13	2.39	2.54	2.47	2.20	1.94	1.81	1.81	1.85	1.90	2.03	2.27	2.42	2.30	2.00	1.77	1.63	1.52	1.48	1.54	1.70	1.93	2.16	2.34	2.47	2.49	2.43	2.44	2.51	2.49	2.42	2.32	2.10	1.92	1.94	1.99	1.88	1.73	1.58	1.50	1.58	1.71	1.84	2.06	2.29	2.30	1.97	1.43	1.07	0.98	1.05	1.16	1.31	1.47	1.58	1.68	1.86	2.14	2.52	3.01	3.27	3.00	2.52	2.40	2.57	2.56	2.26	1.92	1.75	1.72	1.75	1.80	1.84	1.88	1.90	1.92	2.02	2.16	2.18	1.93	1.47	1.13	1.08	1.15	1.27	1.49	1.73	2.04	2.41	2.80	3.16	3.39	3.32	3.01	2.62	2.34	2.18	1.96	1.75	1.68	1.63	1.60	1.60	1.60
2.52	2.48	2.42	2.41	2.32	2.14	1.98	1.91	1.90	1.93	1.98	2.00	2.05	2.17	2.23	2.20	2.20	2.18	2.05	1.84	1.72	1.87	2.28	2.67	2.63	2.27	1.99	1.92	1.91	1.90	1.94	2.10	2.31	2.43	2.30	2.04	1.86	1.74	1.59	1.54	1.66	1.90	2.11	2.25	2.35	2.34	2.22	2.11	2.19	2.42	2.60	2.60	2.43	2.12	1.90	1.92	1.97	1.87	1.72	1.62	1.57	1.63	1.75	1.91	2.12	2.23	2.04	1.58	1.20	1.06	1.11	1.20	1.29	1.42	1.54	1.63	1.73	1.93	2.23	2.65	3.13	3.32	3.09	2.77	2.64	2.56	2.34	2.01	1.75	1.68	1.70	1.76	1.83	1.85	1.86	1.89	1.92	2.01	2.13	2.11	1.77	1.32	1.10	1.11	1.20	1.39	1.71	1.99	2.36	2.82	3.16	3.36	3.33	3.02	2.62	2.33	2.26	2.25	2.04	1.79	1.66	1.57	1.55	1.58	1.58
2.60	2.55	2.46	2.39	2.24	2.06	1.95	1.93	1.95	1.97	2.00	2.02	2.06	2.11	2.10	2.07	2.07	1.95	1.73	1.56	1.59	1.86	2.38	2.81	2.76	2.37	2.07	1.97	1.95	1.94	2.02	2.20	2.35	2.37	2.26	2.10	1.99	1.88	1.68	1.63	1.77	1.98	2.11	2.20	2.23	2.10	1.92	1.86	2.04	2.43	2.77	2.79	2.47	2.10	1.90	1.93	1.98	1.86	1.70	1.60	1.60	1.68	1.79	1.92	2.10	2.09	1.73	1.31	1.14	1.15	1.23	1.30	1.38	1.50	1.57	1.65	1.81	2.06	2.43	2.90	3.35	3.42	3.10	2.71	2.47	2.29	2.04	1.79	1.67	1.68	1.73	1.79	1.85	1.86	1.85	1.87	1.91	1.98	2.08	2.01	1.63	1.27	1.17	1.22	1.33	1.58	1.98	2.37	2.77	3.13	3.32	3.30	3.04	2.62	2.28	2.14	2.23	2.28	2.05	1.79	1.63	1.51	1.52	1.58	1.58
2.67	2.60	2.50	2.42	2.25	2.04	1.94	1.98	2.04	2.01	1.97	1.97	1.98	1.98	2.01	2.04	1.97	1.73	1.54	1.57	1.76	2.06	2.54	2.89	2.84	2.47	2.13	2.00	1.97	1.98	2.09	2.23	2.30	2.27	2.21	2.16	2.11	2.00	1.78	1.70	1.78	1.89	2.01	2.13	2.07	1.85	1.71	1.76	2.04	2.55	2.95	2.89	2.48	2.10	1.93	1.96	1.98	1.84	1.64	1.55	1.59	1.69	1.78	1.88	2.02	1.93	1.51	1.21	1.20	1.26	1.31	1.35	1.44	1.54	1.61	1.74	1.94	2.23	2.67	3.15	3.46	3.35	2.88	2.48	2.27	2.08	1.85	1.71	1.74	1.80	1.82	1.83	1.84	1.82	1.80	1.82	1.86	1.93	2.01	1.90	1.54	1.28	1.26	1.32	1.47	1.80	2.28	2.70	3.00	3.21	3.26	3.08	2.69	2.29	2.04	2.02	2.19	2.25	2.05	1.80	1.59	1.47	1.50	1.56	1.56
2.80	2.71	2.57	2.44	2.23	2.00	1.91	2.00	2.06	1.94	1.85	1.89	1.93	1.96	2.02	2.02	1.83	1.58	1.58	1.79	1.98	2.21	2.62	2.90	2.86	2.56	2.20	2.03	2.00	2.04	2.13	2.22	2.23	2.19	2.24	2.28	2.22	2.06	1.86	1.75	1.74	1.80	1.98	2.06	1.87	1.65	1.64	1.78	2.15	2.75	3.09	2.91	2.45	2.11	1.96	1.96	1.97	1.80	1.59	1.54	1.59	1.84	1.75	1.83	1.93	1.79	1.41	1.24	1.30	1.34	1.35	1.40	1.50	1.60	1.71	1.89	2.14	2.49	2.95	3.30	3.34	3.04	2.61	2.31	2.14	1.98	1.80	1.78	1.90	1.98	1.93	1.85	1.81	1.78	1.75	1.77	1.82	1.89	1.93	1.78	1.47	1.28	1.29	1.39	1.61	2.05	2.51	2.82	3.02	3.12	3.05	2.76	2.39	2.09	1.91	1.93	2.11	2.20	2.07	1.83	1.60	1.50	1.50	1.51	1.51
2.98	2.84	2.57	2.35	2.14	1.94	1.86	1.94	1.97	1.81	1.73	1.83	1.97	2.04	2.03	1.91	1.70	1.60	1.74	1.91	2.00	2.21	2.64	2.91	2.85	2.60	2.25	2.03	2.01	2.08	2.16	2.21	2.20	2.23	2.35	2.37	2.24	2.05	1.87	1.74	1.67	1.72	1.87	1.87	1.64	1.56	1.67	1.86	2.32	2.94	3.16	2.85	2.38	2.09	1.96	1.96	1.95	1.77	1.58	1.57	1.64	1.69	1.75	1.81	1.87	1.71	1.39	1.30	1.37	1.37	1.36	1.45	1.60	1.73	1.89	2.09	2.42	2.86	3.22	3.28	3.05	2.74	2.45	2.20	2.05	1.96	1.87	1.93	2.09	2.12	2.00	1.88	1.83	1.80	1.77	1.77	1.81	1.88	1.87	1.70	1.44	1.31	1.33	1.44	1.72	2.14	2.52	2.80	2.99	3.00	2.80	2.49	2.22	1.99	1.82	1.84	2.05	2.18	2.09	1.90	1.75	1.62	1.54	1.50	1.50
3.15	2.89	2.46	2.21	2.04	1.86	1.76	1.81	1.87	1.76	1.73	1.91	2.11	2.15	1.98	1.78	1.68	1.69	1.76	1.84	1.95	2.22	2.69	2.92	2.82	2.60	2.27	2.03	2.01	2.09	2.17	2.20	2.21	2.28	2.39	2.34	2.15	1.96	1.77	1.58	1.47	1.52	1.63	1.64	1.55	1.60	1.73	1.94	2.52	3.13	3.16	2.69	2.26	2.06	1.97	1.96	1.92	1.75	1.60	1.64	1.71	1.72	1.74	1.80	1.83	1.65	1.40	1.35	1.39	1.38	1.41	1.57	1.77	1.96	2.14	2.39	2.77	3.17	3.30	3.03	2.67	2.53	2.37	2.14	2.05	2.05	2.01	2.07	2.23	2.19	2.04	1.98	1.93	1.88	1.83	1.83	1.85	1.87	1.81	1.64	1.45	1.36	1.38	1.48	1.75	2.15	2.54	2.86	3.00	2.90	2.63	2.36	2.16	1.95	1.74	1.76	2.02	2.16	2.08	1.99	1.90	1.73	1.54	1.47	1.47
3.18	2.84	2.29	2.06	1.94	1.76	1.68	1.77	1.87	1.86	1.91	2.11	2.27	2.18	1.88	1.68	1.66	1.67	1.65	1.76	1.98	2.31	2.75	2.91	2.77	2.57	2.29	2.06	2.02	2.08	2.14	2.15	2.16	2.23	2.29	2.19	2.00	1.81	1.57	1.31	1.22	1.33	1.48	1.57	1.63	1.72	1.80	2.09	2.78	3.26	3.05	2.47	2.13	2.05	1.99	1.96	1.91	1.76	1.67	1.75	1.78	1.71	1.71	1.77	1.78	1.62	1.43	1.40	1.42	1.43	1.53	1.77	2.05	2.28	2.48	2.72	3.05	3.30	3.16	2.66	2.38	2.43	2.36	2.20	2.20	2.23	2.13	2.16	2.29	2.23	2.15	2.15	2.07	1.92	1.86	1.86	1.85	1.81	1.73	1.59	1.47	1.42	1.44	1.58	1.95	2.41	2.78	3.00	3.00	2.78	2.50	2.29	2.13	1.92	1.68	1.69	1.98	2.12	2.09	2.08	2.00	1.75	1.49	1.41	1.41
3.05	2.67	2.14	1.99	1.92	1.81	1.79	1.86	1.94	1.99	2.08	2.22	2.23	1.99	1.68	1.56	1.59	1.60	1.63	1.84	2.11	2.41	2.78	2.89	2.73	2.54	2.32	2.12	2.05	2.08	2.10	2.07	2.05	2.11	2.15	2.02	1.81	1.63	1.37	1.16	1.16	1.32	1.51	1.68	1.83	1.89	1.98	2.39	3.04	3.25	2.83	2.27	2.05	2.04	2.02	1.99	1.94	1.85	1.84	1.90	1.83	1.69	1.66	1.73	1.76	1.64	1.48	1.45	1.47	1.54	1.75	2.05	2.37	2.58	2.70	2.86	3.07	3.16	2.89	2.43	2.30	2.42	2.38	2.34	2.44	2.39	2.22	2.24	2.35	2.33	2.34	2.33	2.12	1.91	1.84	1.83	1.79	1.73	1.66	1.59	1.53	1.51	1.56	1.84	2.32	2.73	2.96	3.01	2.86	2.59	2.37	2.25	2.12	1.89	1.61	1.61	1.94	2.13	2.15	2.15	2.05	1.79	1.48	1.38	1.38
2.79	2.51	2.15	2.08	2.06	2.04	2.02	2.00	2.01	2.05	2.12	2.15	2.01	1.71	1.49	1.45	1.53	1.60	1.74	2.01	2.24	2.50	2.80	2.87	2.71	2.53	2.35	2.20	2.13	2.12	2.09	2.01	2.00	2.03	2.01	1.85	1.62	1.45	1.27	1.20	1.30	1.47	1.69	1.91	2.05	2.10	2.26	2.69	3.13	3.11	2.61	2.15	1.98	2.00	2.06	2.06	2.04	2.02	2.00	1.93	1.74	1.58	1.59	1.71	1.78	1.69	1.52	1.49	1.54	1.70	2.01	2.33	2.56	2.64	2.65	2.74	2.88	2.92	2.70	2.37	2.30	2.37	2.37	2.50	2.62	2.46	2.30	2.35	2.45	2.49	2.52	2.39	2.10	1.89	1.81	1.78	1.74	1.68	1.63	1.61	1.61	1.62	1.77	2.17	2.62	2.87	2.93	2.82	2.60	2.39	2.29	2.24	2.12	1.83	1.50	1.52	1.93	2.17	2.20	2.17	2.08	1.87	1.52	1.38	1.38
2.54	2.47	2.39	2.35	2.32	2.28	2.18	2.09	2.07	2.08	2.08	2.02	1.79	1.53	1.40	1.43	1.54	1.66	1.87	2.14	2.33	2.56	2.79	2.81	2.67	2.52	2.39	2.26	2.18	2.15	2.07	1.97	1.94	1.92	1.84	1.66	1.47	1.36	1.31	1.35	1.50	1.73	1.97	2.14	2.20	2.24	2.41	2.76	3.05	2.89	2.43	2.05	1.87	1.93	2.09	2.15	2.15	2.11	1.97	1.73	1.50	1.43	1.55	1.71	1.79	1.69	1.53	1.52	1.62	1.85	2.19	2.42	2.49	2.45	2.40	2.47	2.68	2.84	2.69	2.37	2.21	2.21	2.33	2.59	2.68	2.45	2.33	2.40	2.49	2.53	2.48	2.28	2.02	1.84	1.77	1.75	1.70	1.63	1.61	1.66	1.71	1.77	2.00	2.42	2.72	2.79	2.74	2.56	2.34	2.26	2.28	2.25	2.07	1.67	1.33	1.48	1.98	2.21	2.22	2.19	2.13	1.94	1.57	1.38	1.38
2.50	2.59	2.69	2.62	2.50	2.35	2.20	2.16	2.15	2.09	2.00	1.86	1.65	1.46	1.41	1.49	1.60	1.76	2.02	2.26	2.41	2.60	2.72	2.70	2.62	2.54	2.43	2.29	2.19	2.13	2.03	1.89	1.81	1.76	1.66	1.53	1.41	1.38	1.42	1.54	1.79	2.08	2.26	2.29	2.25	2.24	2.38	2.70	2.91	2.71	2.30	1.92	1.71	1.86	2.15	2.26	2.23	2.09	1.80	1.51	1.38	1.42	1.58	1.75	1.77	1.64	1.51	1.53	1.66	1.92	2.22	2.29	2.23	2.19	2.17	2.28	2.63	2.92	2.80	2.38	2.09	2.10	2.28	2.55	2.66	2.46	2.34	2.35	2.39	2.40	2.26	2.02	1.86	1.75	1.72	1.69	1.63	1.59	1.62	1.70	1.77	1.88	2.12	2.45	2.60	2.58	2.49	2.30	2.15	2.22	2.31	2.24	1.94	1.46	1.25	1.58	2.08	2.26	2.27	2.24	2.18	2.01	1.61	1.38	1.38
2.62	2.73	2.82	2.69	2.45	2.26	2.22	2.24	2.18	2.03	1.87	1.74	1.60	1.49	1.49	1.59	1.72	1.92	2.18	2.35	2.43	2.51	2.55	2.58	2.60	2.59	2.47	2.28	2.15	2.09	1.98	1.79	1.68	1.60	1.53	1.47	1.45	1.48	1.59	1.83	2.18	2.41	2.41	2.28	2.17	2.15	2.32	2.65	2.80	2.57	2.16	1.77	1.61	1.87	2.23	2.35	2.24	1.98	1.65	1.44	1.41	1.50	1.65	1.76	1.72	1.57	1.50	1.57	1.72	1.96	2.15	2.12	2.06	2.08	2.11	2.30	2.74	3.05	2.92	2.41	2.08	2.07	2.20	2.44	2.65	2.57	2.39	2.28	2.26	2.22	2.06	1.88	1.75	1.68	1.65	1.59	1.55	1.56	1.61	1.70	1.79	1.92	2.11	2.32	2.40	2.33	2.22	2.08	2.10	2.29	2.35	2.17	1.76	1.32	1.30	1.74	2.18	2.31	2.33	2.30	2.22	2.03	1.60	1.36	1.36
2.75	2.81	2.83	2.64	2.32	2.14	2.17	2.17	2.05	1.88	1.75	1.68	1.62	1.58	1.61	1.71	1.87	2.09	2.26	2.31	2.31	2.31	2.37	2.51	2.63	2.65	2.47	2.22	2.11	2.08	1.95	1.74	1.59	1.49	1.45	1.47	1.53	1.64	1.87	2.24	2.51	2.50	2.30	2.11	2.02	2.07	2.30	2.63	2.71	2.43	2.00	1.67	1.62	1.91	2.27	2.36	2.18	1.85	1.56	1.47	1.53	1.63	1.70	1.72	1.66	1.56	1.54	1.64	1.78	1.96	2.07	2.05	2.05	2.08	2.17	2.50	2.93	3.15	2.99	2.50	2.13	2.04	2.11	2.38	2.69	2.68	2.45	2.24	2.13	2.07	1.98	1.88	1.77	1.66	1.56	1.49	1.49	1.54	1.61	1.70	1.82	1.96	2.06	2.14	2.18	2.11	2.04	2.07	2.24	2.40	2.34	2.03	1.57	1.26	1.40	1.88	2.24	2.36	2.38	2.31	2.20	1.98	1.55	1.34	1.34
2.85	2.87	2.84	2.60	2.22	2.01	2.01	2.00	1.88	1.74	1.66	1.64	1.65	1.65	1.69	1.80	1.98	2.13	2.18	2.14	2.10	2.13	2.27	2.52	2.71	2.71	2.47	2.21	2.14	2.10	1.96	1.74	1.53	1.41	1.42	1.50	1.65	1.89	2.23	2.52	2.55	2.32	2.06	1.94	1.96	2.07	2.33	2.61	2.60	2.27	1.88	1.64	1.64	1.93	2.28	2.33	2.11	1.81	1.58	1.60	1.74	1.76	1.72	1.70	1.67	1.61	1.62	1.71	1.80	1.89	2.00	2.06	2.04	2.04	2.28	2.76	3.13	3.20	2.98	2.54	2.13	1.97	2.04	2.42	2.74	2.68	2.43	2.16	1.97	1.93	1.97	1.96	1.83	1.64	1.48	1.40	1.44	1.55	1.64	1.71	1.83	1.94	1.97	1.98	2.03	2.04	2.09	2.25	2.40	2.42	2.24	1.85	1.42	1.28	1.53	1.96	2.30	2.43	2.42	2.29	2.11	1.88	1.53	1.37	1.37
2.92	2.93	2.82	2.50	2.10	1.87	1.85	1.86	1.80	1.68	1.59	1.60	1.63	1.65	1.71	1.82	1.95	2.00	1.95	1.92	1.93	2.02	2.28	2.63	2.82	2.74	2.48	2.29	2.20	2.09	1.94	1.72	1.46	1.36	1.43	1.56	1.78	2.11	2.40	2.52	2.39	2.11	1.92	1.94	2.03	2.14	2.36	2.56	2.47	2.12	1.79	1.58	1.62	1.96	2.29	2.31	2.10	1.84	1.67	1.78	1.93	1.85	1.74	1.73	1.72	1.68	1.70	1.76	1.81	1.88	2.02	2.09	1.99	2.05	2.54	3.11	3.32	3.17	2.87	2.48	2.09	1.92	2.03	2.47	2.72	2.56	2.32	2.07	1.87	1.85	1.97	2.02	1.88	1.62	1.40	1.34	1.43	1.55	1.63	1.68	1.78	1.84	1.83	1.88	2.01	2.15	2.28	2.42	2.45	2.35	2.09	1.68	1.36	1.36	1.66	2.08	2.40	2.50	2.42	2.20	1.97	1.77	1.55	1.45	1.45
2.91	2.87	2.69	2.31	1.94	1.75	1.78	1.83	1.79	1.69	1.61	1.61	1.62	1.64	1.71	1.79	1.83	1.80	1.79	1.85	1.91	2.07	2.44	2.82	2.91	2.73	2.50	2.35	2.17	1.96	1.86	1.67	1.40	1.36	1.48	1.62	1.86	2.18	2.40	2.47	2.32	2.04	1.94	2.03	2.10	2.16	2.32	2.46	2.33	1.99	1.64	1.49	1.67	2.07	2.34	2.31	2.09	1.86	1.79	1.92	2.01	1.90	1.79	1.78	1.78	1.76	1.78	1.83	1.89	2.00	2.10	2.07	2.02	2.30	2.95	3.39	3.32	2.96	2.67	2.41	2.10	1.93	2.03	2.41	2.58	2.36	2.22	2.09	1.91	1.87	1.92	2.01	1.91	1.64	1.40	1.35	1.45	1.56	1.60	1.64	1.71	1.76	1.80	1.91	2.11	2.30	2.42	2.46	2.39	2.21	1.92	1.57	1.36	1.44	1.78	2.22	2.50	2.54	2.36	2.07	1.85	1.73	1.63	1.59	1.59
2.71	2.66	2.52	2.22	1.90	1.81	1.87	1.90	1.84	1.78	1.74	1.66	1.61	1.64	1.71	1.75	1.75	1.77	1.88	2.00	2.07	2.27	2.66	2.94	2.91	2.67	2.48	2.31	1.99	1.77	1.76	1.61	1.38	1.39	1.54	1.68	1.90	2.20	2.43	2.52	2.35	2.05	1.97	2.06	2.08	2.09	2.24	2.36	2.21	1.81	1.45	1.48	1.86	2.23	2.37	2.27	2.05	1.89	1.89	1.96	2.01	1.96	1.89	1.88	1.86	1.83	1.84	1.90	1.98	2.05	2.03	2.00	2.17	2.68	3.27	3.41	3.06	2.65	2.46	2.36	2.16	1.94	1.96	2.26	2.37	2.16	2.16	2.18	2.05	1.92	1.84	1.91	1.93	1.70	1.46	1.40	1.48	1.59	1.63	1.65	1.71	1.78	1.89	2.06	2.25	2.39	2.45	2.42	2.28	2.05	1.75	1.46	1.35	1.51	1.92	2.36	2.56	2.52	2.29	1.99	1.79	1.73	1.74	1.74	1.74
2.30	2.38	2.45	2.33	2.11	2.04	2.04	1.99	1.90	1.88	1.83	1.68	1.60	1.66	1.73	1.76	1.81	1.92	2.05	2.08	2.11	2.35	2.73	2.95	2.84	2.57	2.38	2.16	1.81	1.65	1.69	1.57	1.40	1.46	1.61	1.75	1.99	2.30	2.53	2.56	2.35	2.06	1.97	2.01	1.99	2.01	2.19	2.28	2.06	1.58	1.35	1.64	2.10	2.34	2.34	2.21	2.03	1.93	1.93	1.96	2.01	2.05	2.03	1.96	1.87	1.83	1.85	1.91	1.95	1.92	1.89	2.05	2.47	3.01	3.33	3.19	2.74	2.40	2.31	2.32	2.18	1.91	1.84	2.05	2.14	2.05	2.19	2.31	2.17	1.94	1.74	1.77	1.91	1.82	1.55	1.44	1.51	1.63	1.68	1.68	1.73	1.86	2.02	2.18	2.32	2.42	2.44	2.33	2.10	1.82	1.53	1.34	1.37	1.65	2.09	2.44	2.57	2.50	2.25	1.92	1.70	1.73	1.83	1.85	1.85
1.93	2.13	2.43	2.48	2.34	2.22	2.14	2.06	1.98	1.94	1.82	1.65	1.60	1.69	1.77	1.82	1.92	2.00	1.97	1.91	2.02	2.36	2.76	2.95	2.79	2.44	2.18	1.97	1.74	1.67	1.69	1.60	1.50	1.57	1.70	1.86	2.11	2.40	2.56	2.50	2.27	2.04	1.95	1.93	1.89	1.97	2.18	2.20	1.86	1.44	1.45	1.90	2.27	2.36	2.29	2.14	2.01	1.93	1.91	1.96	2.04	2.12	2.10	1.94	1.79	1.76	1.81	1.87	1.88	1.85	1.95	2.32	2.77	3.05	3.11	2.90	2.55	2.30	2.23	2.24	2.14	1.90	1.74	1.79	1.92	2.07	2.31	2.38	2.19	1.90	1.65	1.65	1.89	1.93	1.64	1.47	1.53	1.65	1.67	1.64	1.73	1.92	2.08	2.20	2.31	2.39	2.35	2.14	1.83	1.56	1.38	1.35	1.54	1.88	2.24	2.48	2.57	2.49	2.20	1.82	1.63	1.76	1.90	1.90	1.90
1.75	1.98	2.37	2.55	2.50	2.35	2.26	2.18	2.11	1.97	1.79	1.66	1.66	1.74	1.82	1.90	1.97	1.93	1.81	1.83	2.11	2.51	2.88	2.99	2.70	2.27	1.99	1.88	1.84	1.82	1.78	1.68	1.63	1.67	1.79	1.96	2.17	2.38	2.47	2.37	2.19	2.04	1.94	1.87	1.86	1.99	2.16	2.09	1.70	1.43	1.64	2.10	2.35	2.35	2.23	2.10	1.98	1.88	1.87	1.97	2.09	2.14	2.10	1.91	1.72	1.70	1.78	1.87	1.91	1.95	2.16	2.53	2.74	2.80	2.84	2.73	2.50	2.30	2.20	2.17	2.12	1.94	1.71	1.61	1.79	2.17	2.41	2.36	2.13	1.85	1.60	1.59	1.89	2.00	1.73	1.50	1.53	1.62	1.62	1.62	1.75	1.92	2.05	2.16	2.27	2.30	2.14	1.87	1.61	1.45	1.40	1.52	1.79	2.10	2.33	2.49	2.56	2.46	2.17	1.80	1.65	1.83	1.95	1.90	1.90
1.65	1.84	2.26	2.61	2.68	2.55	2.40	2.23	2.03	1.82	1.70	1.71	1.75	1.79	1.85	1.92	1.93	1.85	1.85	2.06	2.37	2.68	2.94	2.93	2.55	2.13	1.93	1.94	2.01	2.00	1.88	1.73	1.70	1.75	1.84	1.95	2.10	2.29	2.36	2.27	2.15	2.06	1.97	1.91	1.91	1.99	2.09	1.97	1.61	1.48	1.82	2.25	2.39	2.34	2.21	2.08	1.94	1.82	1.84	2.01	2.13	2.13	2.04	1.88	1.69	1.69	1.81	1.92	1.99	2.07	2.25	2.41	2.43	2.57	2.77	2.71	2.49	2.33	2.20	2.10	2.07	1.96	1.66	1.50	1.78	2.27	2.43	2.28	2.05	1.81	1.57	1.58	1.88	2.02	1.81	1.55	1.51	1.57	1.61	1.66	1.77	1.90	2.01	2.11	2.20	2.14	1.94	1.71	1.55	1.48	1.53	1.74	2.01	2.22	2.36	2.48	2.52	2.41	2.15	1.81	1.69	1.88	1.95	1.87	1.87
