ncols	125
nrows	152
xllcorner	-2042055
yllcorner	1465275
cellsize	30.000000
NODATA_value	-9999.000000
2.76	2.95	3.18	3.13	3.00	2.76	2.50	2.38	2.50	2.66	2.62	2.36	2.25	2.53	2.89	2.84	2.52	2.32	2.23	2.22	2.41	2.37	1.96	1.55	1.42	1.43	1.48	1.56	1.71	1.94	2.22	2.44	2.55	2.64	2.76	2.94	3.01	2.94	2.79	2.62	2.49	2.44	2.47	2.44	2.33	2.23	2.26	2.56	3.12	3.63	3.69	3.35	2.88	2.66	2.61	2.61	2.54	2.36	2.04	1.68	1.37	1.20	1.17	1.23	1.39	1.60	1.78	1.87	1.82	1.66	1.52	1.50	1.57	1.71	1.91	2.06	2.20	2.39	2.57	2.60	2.62	2.70	2.62	2.33	1.97	1.59	1.55	1.80	2.13	2.38	2.57	2.85	2.86	2.26	1.25	0.65	0.36	0.21	0.16	0.34	0.69	1.08	1.40	1.65	1.85	1.99	2.29	2.70	2.91	3.02	3.15	3.18	3.24	3.76	4.75	5.35	5.13	4.23	3.18	2.67	2.54	2.46	2.35	2.27	2.27
3.04	3.15	3.26	3.11	2.89	2.61	2.35	2.33	2.55	2.69	2.63	2.50	2.53	2.72	2.82	2.60	2.16	1.88	1.78	1.85	2.10	2.03	1.58	1.29	1.28	1.37	1.53	1.73	1.93	2.13	2.39	2.68	2.99	3.37	3.71	3.86	3.79	3.60	3.39	3.16	2.92	2.73	2.62	2.50	2.34	2.26	2.43	2.88	3.54	3.94	3.81	3.19	2.60	2.38	2.36	2.32	2.16	1.85	1.48	1.20	1.10	1.14	1.23	1.32	1.45	1.68	1.93	2.02	1.87	1.64	1.52	1.57	1.70	1.88	2.10	2.28	2.46	2.69	2.78	2.69	2.61	2.60	2.47	2.54	2.05	1.75	1.65	1.88	2.23	2.46	2.57	2.53	2.08	1.21	0.61	0.43	0.40	0.46	0.63	0.92	1.29	1.65	2.02	2.33	2.64	2.87	3.29	3.88	4.18	4.19	4.12	4.06	4.09	4.46	5.27	5.33	4.40	3.26	2.60	2.56	2.73	2.75	2.62	2.52	2.52
3.30	3.31	3.22	3.02	2.79	2.59	2.46	2.61	2.90	2.99	2.86	2.77	2.81	2.81	2.64	2.29	1.82	1.53	1.57	1.78	2.02	1.80	1.31	1.11	1.19	1.34	1.57	1.84	2.11	2.41	2.77	3.17	3.62	4.00	4.15	4.05	3.87	3.71	3.61	3.51	3.35	3.17	3.00	2.82	2.64	2.63	2.84	3.36	3.93	4.07	3.63	2.72	1.97	1.52	1.39	1.36	1.25	1.02	0.87	0.85	0.98	1.18	1.34	1.45	1.63	1.97	2.27	2.27	1.95	1.61	1.54	1.71	2.02	2.33	2.58	2.78	3.03	3.25	3.22	3.01	2.82	2.73	2.66	2.52	2.29	1.97	1.84	2.05	2.36	2.42	2.23	1.82	1.23	0.86	0.82	0.96	1.09	1.19	1.30	1.55	1.90	2.29	2.69	3.15	3.65	4.20	4.77	5.10	4.98	4.76	4.63	4.60	4.70	4.97	5.14	4.72	3.45	2.54	2.39	2.61	2.74	2.65	2.59	2.64	2.64
3.64	3.40	3.08	2.92	2.83	2.82	2.94	3.28	3.52	3.48	3.29	3.13	2.98	2.74	2.42	2.02	1.61	1.49	1.69	1.97	2.06	1.72	1.30	1.20	1.27	1.43	1.62	1.90	2.33	2.84	3.29	3.68	3.95	3.94	3.60	3.19	3.06	3.18	3.34	3.42	3.42	3.35	3.21	3.06	2.94	2.89	3.06	3.62	4.06	3.93	3.17	2.20	1.49	1.07	0.84	0.67	0.54	0.52	0.62	0.81	1.06	1.30	1.51	1.69	1.98	2.42	2.64	2.46	2.06	1.73	1.74	2.12	2.62	2.98	3.21	3.39	3.60	3.64	3.44	3.17	3.03	2.98	2.90	2.73	2.40	2.06	1.98	2.16	2.29	2.07	1.66	1.36	1.22	1.30	1.51	1.72	1.90	2.06	2.16	2.27	2.69	3.16	3.56	4.17	4.83	5.29	5.44	5.24	4.69	4.31	4.27	4.34	4.49	4.67	4.61	4.06	3.16	2.50	2.38	2.43	2.30	2.13	2.35	2.63	2.63
3.87	3.45	2.98	2.97	3.12	3.36	3.69	4.00	4.09	3.90	3.65	3.42	3.14	2.71	2.30	1.99	1.74	1.73	1.94	2.14	2.08	1.72	1.42	1.38	1.45	1.63	1.88	2.27	2.77	3.20	3.47	3.63	3.55	3.13	2.49	2.15	2.30	2.60	2.76	2.84	2.96	3.07	3.13	3.13	3.07	3.02	3.23	3.77	3.99	3.57	2.63	1.84	1.30	0.90	0.62	0.45	0.38	0.48	0.69	0.96	1.28	1.63	1.94	2.17	2.45	2.76	2.80	2.54	2.24	2.09	2.17	2.64	3.16	3.47	3.60	3.65	3.57	3.28	2.80	2.53	2.54	2.58	2.55	2.43	2.20	1.97	1.97	2.09	2.03	1.77	1.68	1.75	1.87	2.01	2.20	2.42	2.65	2.93	3.25	3.50	3.86	4.28	4.75	5.27	5.54	5.45	5.00	4.32	3.71	3.51	3.52	3.53	3.61	3.91	4.07	3.72	3.19	2.80	2.49	2.25	1.98	1.83	2.12	2.46	2.46
3.77	3.46	3.04	3.04	3.31	3.67	3.99	4.14	4.08	3.87	3.67	3.49	3.22	2.79	2.44	2.23	2.08	2.00	2.02	2.05	1.90	1.55	1.37	1.42	1.59	1.82	2.16	2.56	2.83	2.95	2.95	2.80	2.46	1.93	1.56	1.66	2.01	2.14	2.04	2.08	2.26	2.50	2.78	2.97	3.01	3.07	3.33	3.74	3.70	2.99	2.09	1.46	0.93	0.57	0.45	0.50	0.61	0.75	0.96	1.28	1.69	2.13	2.45	2.64	2.77	2.88	2.83	2.65	2.55	2.53	2.67	3.15	3.60	3.71	3.55	3.22	2.77	2.20	1.75	1.71	1.90	2.04	2.09	2.03	1.86	1.84	2.00	2.09	2.05	2.06	2.24	2.42	2.55	2.69	2.91	3.17	3.45	3.84	4.24	4.54	4.86	5.26	5.54	5.55	5.25	4.64	3.98	3.51	3.14	2.92	2.87	2.85	3.06	3.63	3.86	3.40	2.95	2.75	2.53	2.21	1.96	1.79	2.01	2.25	2.25
3.61	3.49	3.20	3.04	3.12	3.34	3.52	3.52	3.35	3.22	3.21	3.19	3.08	2.88	2.70	2.52	2.31	2.09	1.92	1.76	1.48	1.19	1.18	1.33	1.54	1.75	2.01	2.16	2.12	2.01	1.88	1.66	1.44	1.24	1.25	1.54	1.73	1.63	1.52	1.61	1.76	1.96	2.21	2.39	2.58	2.85	3.24	3.50	3.29	2.51	1.68	1.00	0.51	0.39	0.54	0.77	0.94	1.06	1.29	1.71	2.18	2.60	2.83	2.94	3.01	3.06	3.03	2.92	2.87	2.90	3.13	3.59	3.78	3.48	2.87	2.21	1.73	1.45	1.39	1.61	1.92	2.13	2.17	2.05	1.94	2.07	2.26	2.36	2.41	2.52	2.64	2.76	2.94	3.18	3.45	3.71	3.97	4.22	4.37	4.51	4.83	5.21	5.25	4.76	4.22	3.70	3.22	2.98	2.72	2.50	2.47	2.69	3.22	3.86	3.87	3.16	2.53	2.29	2.19	2.07	1.92	1.82	2.02	2.21	2.21
3.64	3.58	3.23	2.90	2.71	2.67	2.62	2.44	2.25	2.26	2.40	2.53	2.58	2.62	2.63	2.56	2.35	2.05	1.76	1.43	1.05	0.92	1.04	1.19	1.27	1.35	1.43	1.39	1.29	1.26	1.22	1.21	1.27	1.31	1.41	1.55	1.56	1.47	1.46	1.56	1.65	1.73	1.82	1.94	2.21	2.73	3.15	3.26	2.92	2.23	1.40	0.77	0.57	0.74	1.05	1.24	1.26	1.34	1.67	2.17	2.70	3.07	3.26	3.34	3.43	3.51	3.47	3.31	3.18	3.21	3.48	3.71	3.44	2.63	1.85	1.49	1.44	1.45	1.60	1.96	2.35	2.57	2.53	2.42	2.51	2.70	2.71	2.64	2.63	2.67	2.73	2.83	3.03	3.29	3.48	3.55	3.55	3.45	3.34	3.49	4.07	4.51	4.22	3.53	3.33	3.13	2.77	2.42	2.18	2.20	2.58	3.25	3.82	4.14	3.89	3.14	2.45	2.02	1.81	1.72	1.69	1.74	1.97	2.16	2.16
3.74	3.51	2.97	2.50	2.14	2.00	1.94	1.81	1.73	1.77	1.88	1.88	1.89	2.00	2.18	2.27	2.19	1.98	1.64	1.23	0.96	0.97	1.08	1.10	1.05	1.03	1.07	1.11	1.14	1.19	1.25	1.37	1.54	1.66	1.71	1.75	1.76	1.74	1.76	1.83	1.90	1.96	2.05	2.25	2.62	3.08	3.23	3.03	2.52	1.85	1.26	1.01	1.10	1.43	1.70	1.72	1.60	1.70	2.17	2.80	3.34	3.71	3.87	3.93	3.99	4.05	4.00	3.83	3.67	3.64	3.70	3.47	2.69	1.88	1.57	1.67	1.81	1.86	2.02	2.40	2.81	2.97	2.92	2.98	3.20	3.23	2.98	2.73	2.64	2.69	2.77	2.84	2.97	3.07	2.96	2.63	2.40	2.27	2.30	2.78	3.71	4.16	3.57	2.89	2.83	2.63	2.16	1.82	1.80	2.27	3.15	3.70	4.05	4.15	3.76	3.08	2.62	2.28	1.97	1.83	1.83	1.86	1.96	2.07	2.07
3.64	3.22	2.48	1.92	1.53	1.55	1.72	1.78	1.79	1.90	1.96	1.89	1.82	1.89	1.99	1.97	1.91	1.85	1.64	1.39	1.27	1.25	1.20	1.13	1.08	1.10	1.21	1.36	1.46	1.53	1.60	1.68	1.82	1.97	2.07	2.19	2.27	2.26	2.25	2.31	2.45	2.63	2.84	3.13	3.42	3.51	3.22	2.68	2.13	1.70	1.43	1.44	1.70	2.05	2.25	2.19	2.08	2.33	2.97	3.66	4.18	4.44	4.47	4.43	4.39	4.35	4.30	4.22	4.14	3.99	3.72	3.15	2.35	2.04	2.23	2.47	2.48	2.38	2.47	2.84	3.23	3.39	3.49	3.67	3.69	3.39	2.99	2.71	2.64	2.71	2.77	2.78	2.80	2.65	2.23	1.94	1.93	2.07	2.38	3.12	4.08	4.14	3.19	2.55	2.39	1.99	1.55	1.49	1.83	2.56	3.13	3.50	3.95	3.99	3.42	2.77	2.55	2.55	2.54	2.51	2.47	2.33	2.20	2.16	2.16
3.34	2.95	2.12	1.46	1.25	1.48	1.87	2.13	2.33	2.52	2.58	2.53	2.48	2.39	2.21	1.91	1.71	1.72	1.70	1.64	1.56	1.42	1.26	1.21	1.27	1.40	1.58	1.73	1.85	1.95	2.02	2.04	2.13	2.32	2.49	2.66	2.78	2.80	2.78	2.88	3.14	3.39	3.62	3.76	3.72	3.38	2.77	2.16	1.85	1.74	1.70	1.85	2.20	2.58	2.72	2.61	2.64	3.08	3.84	4.47	4.80	4.82	4.64	4.45	4.30	4.20	4.14	4.12	4.12	3.98	3.69	3.36	3.06	3.13	3.47	3.62	3.52	3.36	3.40	3.59	3.80	3.96	4.09	4.11	3.79	3.31	2.91	2.65	2.61	2.70	2.75	2.71	2.61	2.36	2.16	2.28	2.59	2.87	3.29	3.99	4.45	4.04	2.81	2.13	1.91	1.55	1.26	1.40	1.91	2.36	2.77	3.49	4.08	3.85	3.06	2.49	2.35	2.51	2.75	2.92	2.93	2.76	2.50	2.35	2.35
3.14	2.74	1.88	1.33	1.42	2.05	2.70	3.12	3.42	3.57	3.58	3.50	3.31	2.96	2.48	2.03	1.75	1.69	1.72	1.70	1.63	1.50	1.38	1.41	1.54	1.72	1.88	2.05	2.20	2.34	2.50	2.64	2.79	2.91	3.03	3.20	3.35	3.40	3.45	3.61	3.80	3.92	3.88	3.65	3.19	2.53	1.92	1.64	1.72	1.86	2.02	2.31	2.72	3.04	3.05	2.89	3.07	3.72	4.43	4.78	4.79	4.54	4.19	3.92	3.80	3.76	3.79	3.78	3.72	3.68	3.73	3.88	4.16	4.46	4.71	4.81	4.81	4.78	4.75	4.65	4.56	4.50	4.39	4.08	3.57	3.05	2.71	2.58	2.69	2.85	2.86	2.77	2.66	2.63	2.82	3.16	3.44	3.63	3.95	4.45	4.42	3.57	2.40	1.76	1.45	1.11	0.95	1.22	1.70	2.16	3.04	4.04	4.20	3.44	2.58	2.17	2.10	2.25	2.50	2.69	2.80	2.83	2.70	2.57	2.57
2.85	2.32	1.49	1.36	1.98	2.96	3.72	4.15	4.35	4.32	4.15	3.90	3.57	3.11	2.67	2.30	2.01	1.84	1.78	1.74	1.69	1.65	1.67	1.78	1.91	2.05	2.23	2.43	2.58	2.73	3.02	3.37	3.68	3.85	3.90	3.94	3.93	3.89	3.98	4.10	4.09	3.87	3.47	2.89	2.22	1.66	1.45	1.60	1.98	2.27	2.55	2.89	3.21	3.30	3.16	3.08	3.45	4.12	4.51	4.50	4.19	3.77	3.39	3.16	3.13	3.21	3.31	3.32	3.24	3.29	3.60	4.02	4.48	4.85	5.07	5.23	5.35	5.39	5.31	5.12	4.86	4.61	4.26	3.75	3.24	2.93	2.87	3.01	3.19	3.25	3.11	2.94	2.91	3.04	3.31	3.46	3.46	3.51	3.89	4.26	3.81	2.62	1.85	1.36	0.97	0.72	0.81	1.26	1.84	2.63	3.69	4.23	3.84	2.74	2.13	1.95	1.97	2.05	2.06	2.06	2.22	2.49	2.63	2.71	2.71
2.20	1.78	1.42	1.83	2.91	3.95	4.51	4.66	4.56	4.30	3.96	3.63	3.31	2.98	2.73	2.51	2.27	2.04	1.92	1.88	1.88	1.96	2.15	2.34	2.47	2.58	2.76	2.96	3.10	3.30	3.68	4.13	4.44	4.58	4.56	4.38	4.15	4.04	4.05	3.96	3.65	3.13	2.48	1.84	1.42	1.37	1.63	2.10	2.60	2.95	3.25	3.52	3.60	3.44	3.26	3.36	3.78	4.13	4.15	3.79	3.31	2.87	2.53	2.34	2.40	2.46	2.46	2.48	2.55	2.74	3.07	3.48	3.93	4.24	4.40	4.54	4.65	4.69	4.69	4.56	4.40	4.16	3.85	3.49	3.32	3.39	3.61	3.79	3.81	3.57	3.26	3.03	2.97	3.00	3.05	2.92	2.78	3.00	3.68	3.81	2.82	1.85	1.22	0.90	0.78	0.89	1.27	1.85	2.45	3.16	3.96	4.08	3.24	2.24	1.93	2.02	2.12	2.09	1.93	1.79	1.81	2.04	2.38	2.64	2.64
2.07	2.03	2.25	3.02	4.04	4.68	4.79	4.53	4.12	3.69	3.34	3.09	2.86	2.67	2.56	2.44	2.31	2.15	2.05	2.09	2.24	2.51	2.81	3.02	3.18	3.33	3.50	3.68	3.87	4.13	4.50	4.75	4.76	4.60	4.31	3.95	3.74	3.67	3.50	3.08	2.55	2.00	1.46	1.17	1.27	1.69	2.28	2.86	3.25	3.60	3.83	3.86	3.73	3.55	3.43	3.56	3.77	3.76	3.44	2.90	2.40	2.03	1.72	1.68	1.82	1.84	1.73	1.71	1.85	2.07	2.49	2.86	3.09	3.14	3.10	3.13	3.07	3.16	3.29	3.30	3.46	3.54	3.51	3.51	3.60	3.73	3.83	3.81	3.65	3.35	3.06	2.91	2.83	2.70	2.50	2.34	2.48	3.08	3.66	3.34	2.10	1.19	0.80	0.73	0.96	1.45	2.00	2.59	3.08	3.54	4.03	3.78	2.68	1.89	1.84	2.13	2.26	2.16	2.06	1.97	1.90	1.92	2.19	2.48	2.48
2.61	2.93	3.53	4.13	4.64	4.80	4.50	3.95	3.41	3.05	2.82	2.64	2.46	2.31	2.23	2.20	2.20	2.17	2.19	2.34	2.65	3.01	3.28	3.49	3.67	3.88	4.11	4.32	4.55	4.78	4.92	4.79	4.36	3.79	3.20	2.86	2.95	2.90	2.48	1.89	1.37	1.06	0.96	1.20	1.74	2.31	2.89	3.37	3.73	3.98	3.98	3.81	3.58	3.45	3.42	3.43	3.37	3.10	2.60	2.08	1.66	1.35	1.24	1.39	1.60	1.67	1.68	1.75	1.83	1.98	2.26	2.56	2.69	2.56	2.30	2.13	2.11	2.34	2.53	2.59	2.76	3.00	3.18	3.29	3.37	3.30	3.10	2.89	2.79	2.73	2.71	2.70	2.67	2.55	2.44	2.54	2.91	3.38	3.46	2.74	1.55	0.96	0.84	1.02	1.44	1.94	2.49	3.07	3.47	3.72	3.72	3.21	2.18	1.77	1.94	2.21	2.21	2.03	1.98	2.03	1.98	1.88	2.04	2.23	2.23
3.14	3.46	3.97	4.30	4.48	4.34	3.86	3.34	2.87	2.63	2.48	2.30	2.14	2.02	1.96	2.01	2.11	2.19	2.29	2.41	2.63	2.85	3.08	3.36	3.65	3.96	4.26	4.52	4.67	4.68	4.47	3.96	3.19	2.52	2.07	2.01	2.12	1.90	1.36	0.93	0.76	0.84	1.17	1.78	2.36	2.82	3.31	3.71	3.98	3.99	3.74	3.39	3.15	3.07	3.06	3.01	2.82	2.48	1.99	1.53	1.18	1.01	1.09	1.33	1.51	1.62	1.78	2.00	2.11	2.14	2.24	2.41	2.51	2.39	2.08	1.89	2.02	2.31	2.36	2.30	2.44	2.59	2.70	2.75	2.74	2.63	2.50	2.44	2.43	2.49	2.54	2.53	2.52	2.53	2.66	2.91	3.10	3.25	3.05	2.17	1.27	1.05	1.17	1.63	2.06	2.42	2.77	3.18	3.42	3.32	3.08	2.68	2.21	2.21	2.39	2.43	2.31	2.11	1.91	1.81	1.76	1.68	1.79	1.92	1.92
3.62	3.69	3.81	3.93	3.93	3.68	3.26	2.87	2.57	2.37	2.21	2.01	1.86	1.79	1.82	1.94	2.08	2.19	2.25	2.26	2.29	2.35	2.55	2.90	3.37	3.81	4.14	4.27	4.17	3.84	3.28	2.53	1.82	1.42	1.28	1.34	1.27	1.00	0.73	0.69	0.86	1.26	1.88	2.46	2.91	3.32	3.66	3.93	3.97	3.74	3.35	3.00	2.78	2.66	2.61	2.56	2.42	2.13	1.71	1.32	1.08	1.12	1.41	1.70	1.85	1.96	2.21	2.35	2.25	2.14	2.15	2.25	2.32	2.28	2.09	2.02	2.23	2.37	2.18	2.05	2.17	2.22	2.25	2.31	2.38	2.46	2.52	2.56	2.54	2.50	2.47	2.41	2.40	2.47	2.59	2.68	2.80	2.92	2.63	1.75	1.15	1.08	1.45	1.97	2.25	2.42	2.65	2.93	2.94	2.59	2.63	2.81	2.91	3.09	3.13	3.10	3.00	2.71	2.20	1.74	1.50	1.45	1.62	1.85	1.85
4.14	3.87	3.57	3.57	3.49	3.23	2.90	2.56	2.32	2.14	1.96	1.79	1.67	1.66	1.78	1.94	2.09	2.18	2.22	2.24	2.31	2.45	2.73	3.13	3.57	3.88	3.92	3.68	3.25	2.66	1.94	1.32	0.89	0.76	0.82	0.91	0.88	0.80	0.83	1.05	1.42	1.97	2.59	3.11	3.49	3.78	3.94	3.94	3.73	3.36	2.97	2.68	2.47	2.36	2.36	2.36	2.25	2.01	1.72	1.50	1.47	1.74	2.13	2.39	2.50	2.63	2.70	2.51	2.20	2.13	2.17	2.10	2.08	2.15	2.15	2.18	2.37	2.39	2.15	2.01	2.05	2.02	2.02	2.17	2.30	2.42	2.47	2.44	2.38	2.33	2.33	2.33	2.35	2.42	2.42	2.40	2.55	2.59	2.07	1.19	0.86	0.95	1.47	1.77	1.78	1.88	2.18	2.42	2.37	2.39	2.95	3.59	3.87	3.89	3.82	3.72	3.50	3.09	2.55	1.93	1.59	1.48	1.72	2.13	2.13
4.48	4.08	3.57	3.45	3.32	3.08	2.81	2.51	2.27	2.11	1.96	1.84	1.77	1.79	1.91	2.08	2.15	2.26	2.37	2.53	2.78	3.13	3.50	3.79	3.91	3.79	3.41	2.83	2.17	1.54	0.95	0.62	0.56	0.69	0.85	0.96	1.04	1.16	1.39	1.68	2.05	2.56	3.18	3.69	4.01	4.17	4.09	3.81	3.40	2.96	2.59	2.34	2.23	2.23	2.31	2.34	2.19	2.02	1.97	2.04	2.28	2.69	3.04	3.21	3.26	3.23	3.01	2.68	2.50	2.50	2.34	2.06	1.94	2.11	2.22	2.23	2.34	2.39	2.31	2.21	2.15	2.06	2.03	2.13	2.21	2.27	2.26	2.19	2.14	2.14	2.19	2.26	2.34	2.37	2.30	2.28	2.36	2.14	1.36	0.71	0.63	0.81	1.22	1.29	1.29	1.53	1.85	2.06	2.31	3.02	4.05	4.58	4.49	4.19	3.90	3.58	3.12	2.67	2.36	2.10	1.90	1.83	2.13	2.48	2.48
4.69	4.27	3.66	3.42	3.22	3.01	2.83	2.65	2.49	2.39	2.31	2.20	2.18	2.20	2.24	2.26	2.28	2.37	2.58	2.89	3.27	3.62	3.80	3.78	3.52	3.09	2.53	1.87	1.19	0.67	0.45	0.52	0.78	1.05	1.24	1.40	1.55	1.76	2.07	2.30	2.58	3.07	3.71	4.17	4.37	4.35	4.06	3.57	3.05	2.62	2.31	2.20	2.21	2.29	2.35	2.26	2.09	2.12	2.33	2.72	3.28	3.79	4.08	4.18	4.07	3.83	3.48	3.23	3.17	2.98	2.51	2.07	2.07	2.34	2.37	2.23	2.32	2.51	2.53	2.41	2.29	2.19	2.14	2.12	2.11	2.12	2.12	2.09	2.07	2.06	2.08	2.16	2.21	2.22	2.16	2.12	2.05	1.59	0.88	0.71	0.74	0.92	1.08	1.18	1.35	1.61	1.90	2.32	3.17	4.31	5.15	5.15	4.49	3.83	3.40	2.96	2.50	2.11	1.97	2.02	2.08	2.30	2.58	2.67	2.67
4.73	4.29	3.65	3.30	3.06	2.95	2.83	2.73	2.65	2.59	2.52	2.43	2.42	2.45	2.46	2.42	2.33	2.35	2.60	3.00	3.32	3.41	3.24	2.87	2.45	2.02	1.56	1.00	0.50	0.34	0.51	0.95	1.32	1.55	1.74	1.98	2.21	2.42	2.66	2.81	3.06	3.53	4.13	4.45	4.49	4.23	3.75	3.21	2.76	2.46	2.34	2.34	2.38	2.40	2.31	2.12	2.11	2.35	2.73	3.35	4.06	4.49	4.65	4.61	4.51	4.30	4.10	3.96	3.70	3.25	2.74	2.44	2.58	2.72	2.59	2.48	2.66	2.87	2.82	2.58	2.34	2.23	2.17	2.10	2.07	2.05	2.03	2.05	2.07	2.04	2.02	2.04	2.05	2.05	2.01	1.94	1.72	1.23	0.99	1.05	1.29	1.40	1.44	1.56	1.72	1.96	2.43	3.36	4.51	5.38	5.59	4.97	3.69	3.12	2.88	2.58	2.26	1.92	1.76	1.80	2.03	2.52	2.64	2.56	2.56
4.60	4.26	3.68	3.29	3.06	2.94	2.83	2.71	2.62	2.51	2.36	2.24	2.20	2.22	2.28	2.29	2.22	2.25	2.48	2.77	2.82	2.58	2.16	1.71	1.34	1.06	0.77	0.46	0.31	0.55	1.11	1.60	1.86	2.05	2.25	2.50	2.75	2.90	2.99	3.13	3.44	3.91	4.32	4.48	4.26	3.76	3.19	2.80	2.61	2.54	2.58	2.66	2.65	2.58	2.42	2.29	2.39	2.69	3.08	3.77	4.36	4.63	4.60	4.41	4.29	4.26	4.28	4.29	4.10	3.79	3.58	3.48	3.44	3.22	2.94	2.98	3.26	3.37	3.12	2.69	2.29	2.09	2.01	2.03	2.06	2.02	1.99	2.02	2.09	2.12	2.06	2.02	2.03	2.01	1.92	1.78	1.53	1.30	1.33	1.56	1.80	1.92	2.01	2.11	2.25	2.61	3.38	4.49	5.42	5.71	5.22	3.96	2.80	2.48	2.37	2.18	2.01	1.81	1.65	1.57	1.73	2.04	2.14	2.14	2.14
4.62	4.35	3.79	3.42	3.23	3.08	2.91	2.75	2.59	2.43	2.27	2.13	2.03	1.99	2.00	2.13	2.04	2.16	2.34	2.30	1.96	1.47	1.03	0.70	0.53	0.52	0.49	0.44	0.57	1.08	1.68	2.02	2.21	2.42	2.63	2.82	2.93	2.96	3.01	3.20	3.59	4.02	4.30	4.23	3.80	3.16	2.75	2.56	2.54	2.66	2.76	2.87	2.92	2.83	2.70	2.61	2.62	2.84	3.25	3.94	4.31	4.24	3.85	3.59	3.58	3.76	3.98	4.19	4.35	4.44	4.51	4.44	4.19	3.88	3.64	3.70	3.77	3.55	3.05	2.45	2.03	1.88	1.88	1.94	2.01	2.01	1.97	1.95	1.99	2.09	2.17	2.17	2.16	2.06	1.92	1.79	1.68	1.66	1.77	1.99	2.18	2.35	2.57	2.77	3.04	3.51	4.29	5.18	5.62	5.28	4.10	2.82	2.16	2.01	1.87	1.66	1.57	1.64	1.63	1.50	1.46	1.52	1.80	2.04	2.04
4.83	4.42	3.78	3.46	3.33	3.24	3.05	2.82	2.64	2.52	2.44	2.32	2.20	2.06	1.97	1.94	1.97	2.05	1.99	1.59	1.02	0.56	0.26	0.22	0.37	0.54	0.62	0.75	1.02	1.40	1.79	1.99	2.12	2.32	2.52	2.67	2.68	2.69	2.81	3.13	3.61	4.04	4.18	3.92	3.43	2.94	2.64	2.53	2.53	2.61	2.76	2.91	3.03	2.94	2.79	2.62	2.55	2.69	3.15	3.82	4.03	3.69	3.18	2.96	3.00	3.22	3.52	3.79	4.10	4.38	4.57	4.59	4.42	4.28	4.24	4.14	3.79	3.19	2.53	2.05	1.83	1.78	1.77	1.82	1.95	2.01	1.95	1.86	1.81	1.89	2.08	2.23	2.22	2.06	1.95	1.93	1.96	2.08	2.29	2.49	2.64	2.87	3.13	3.42	3.79	4.23	4.75	5.21	5.14	4.14	2.98	2.31	2.06	1.98	1.82	1.50	1.37	1.57	1.69	1.75	1.85	1.87	2.23	2.59	2.59
4.83	4.32	3.61	3.35	3.27	3.20	3.01	2.75	2.59	2.51	2.45	2.37	2.26	2.13	2.03	1.95	1.89	1.78	1.45	0.96	0.60	0.36	0.21	0.24	0.47	0.76	1.01	1.22	1.40	1.56	1.71	1.79	1.82	1.92	2.07	2.20	2.29	2.42	2.70	3.19	3.70	4.00	3.95	3.54	3.07	2.71	2.47	2.42	2.47	2.51	2.62	2.84	2.91	2.79	2.60	2.36	2.25	2.38	2.97	3.62	3.70	3.21	2.77	2.71	2.88	3.06	3.16	3.22	3.37	3.57	3.73	3.84	3.95	4.07	4.11	3.92	3.36	2.65	2.22	2.03	1.90	1.70	1.60	1.76	1.95	2.00	1.94	1.84	1.71	1.65	1.73	1.89	1.96	1.93	1.95	2.04	2.11	2.25	2.46	2.64	2.79	2.98	3.23	3.61	4.05	4.41	4.68	4.72	4.28	3.39	2.81	2.61	2.54	2.47	2.29	1.93	1.68	1.69	1.76	1.98	2.25	2.44	2.70	2.91	2.91
4.40	4.09	3.62	3.38	3.18	2.91	2.61	2.41	2.26	2.20	2.17	2.16	2.11	2.03	1.98	1.90	1.72	1.46	1.15	0.95	0.83	0.75	0.76	0.86	1.04	1.29	1.51	1.69	1.80	1.83	1.87	1.87	1.83	1.82	1.89	2.02	2.21	2.43	2.82	3.34	3.72	3.79	3.49	2.87	2.28	2.02	2.01	2.13	2.27	2.40	2.52	2.70	2.71	2.47	2.25	2.09	2.01	2.22	2.82	3.41	3.44	2.98	2.68	2.72	2.89	2.96	2.84	2.68	2.66	2.73	2.72	2.82	3.08	3.38	3.48	3.36	3.05	2.68	2.44	2.26	1.89	1.55	1.58	1.92	2.12	2.11	1.99	1.84	1.69	1.61	1.53	1.51	1.61	1.75	1.90	2.05	2.11	2.17	2.27	2.40	2.55	2.74	3.09	3.54	3.90	4.12	4.22	4.07	3.74	3.43	3.19	2.99	2.85	2.71	2.49	2.18	1.96	1.82	1.73	1.79	1.99	2.27	2.59	2.77	2.77
3.94	3.95	3.81	3.52	3.14	2.70	2.37	2.16	1.96	1.86	1.88	1.92	1.94	1.93	1.90	1.82	1.61	1.37	1.24	1.23	1.27	1.36	1.48	1.61	1.74	1.87	2.03	2.16	2.25	2.28	2.24	2.13	2.02	1.97	2.04	2.19	2.38	2.62	3.01	3.42	3.59	3.42	2.87	2.10	1.75	1.78	1.93	2.12	2.31	2.44	2.52	2.60	2.49	2.18	2.00	1.98	2.02	2.26	2.79	3.28	3.36	3.10	2.88	2.83	2.79	2.61	2.35	2.20	2.23	2.29	2.27	2.32	2.53	2.78	2.78	2.83	2.94	2.96	2.81	2.40	1.85	1.68	2.03	2.46	2.61	2.51	2.32	2.07	1.84	1.75	1.68	1.58	1.61	1.79	1.95	2.05	2.10	2.17	2.27	2.39	2.57	2.83	3.12	3.37	3.54	3.62	3.57	3.48	3.53	3.52	3.16	2.75	2.50	2.26	2.00	1.78	1.82	1.86	1.87	1.94	2.08	2.26	2.52	2.73	2.73
3.98	4.13	4.12	3.74	3.27	2.75	2.37	2.09	1.85	1.67	1.59	1.62	1.72	1.82	1.84	1.74	1.58	1.45	1.45	1.58	1.78	2.00	2.20	2.33	2.41	2.44	2.49	2.54	2.57	2.53	2.44	2.32	2.22	2.20	2.29	2.45	2.66	2.94	3.25	3.45	3.37	3.00	2.38	1.86	1.84	2.12	2.42	2.66	2.75	2.69	2.60	2.53	2.35	2.08	1.96	1.99	2.05	2.30	2.77	3.28	3.45	3.29	2.97	2.69	2.43	2.17	1.97	1.93	2.05	2.14	2.10	2.17	2.33	2.46	2.41	2.54	2.81	3.01	3.04	2.84	2.50	2.57	2.97	3.25	3.24	2.97	2.60	2.30	2.16	2.13	2.12	2.10	2.11	2.15	2.17	2.15	2.14	2.21	2.31	2.42	2.57	2.69	2.78	2.87	2.97	2.97	2.87	3.14	3.63	3.60	3.03	2.57	2.29	1.98	1.68	1.61	1.81	2.02	2.35	2.70	2.89	2.99	2.96	2.90	2.90
4.32	4.37	4.20	3.75	3.25	2.77	2.38	2.03	1.75	1.50	1.31	1.26	1.38	1.57	1.71	1.68	1.56	1.52	1.66	1.93	2.24	2.54	2.78	2.92	2.96	2.97	2.94	2.87	2.77	2.65	2.50	2.39	2.38	2.49	2.67	2.88	3.12	3.40	3.61	3.55	3.27	2.82	2.37	2.25	2.55	2.95	3.26	3.35	3.21	2.88	2.62	2.47	2.32	2.08	2.00	2.02	2.07	2.33	2.84	3.42	3.60	3.33	2.84	2.42	2.08	1.86	1.82	1.89	2.02	2.06	1.97	2.00	2.20	2.32	2.29	2.41	2.63	2.87	3.15	3.46	3.68	3.80	3.88	3.85	3.56	2.98	2.43	2.17	2.22	2.40	2.55	2.63	2.62	2.53	2.45	2.36	2.25	2.14	2.02	1.96	2.01	2.00	2.04	2.21	2.37	2.34	2.53	3.33	4.00	3.81	3.15	2.75	2.50	2.26	2.04	1.94	2.05	2.23	2.56	2.84	3.04	3.14	2.91	2.68	2.68
4.66	4.48	3.94	3.39	2.89	2.46	2.16	1.86	1.56	1.29	1.12	1.03	1.05	1.23	1.49	1.61	1.53	1.54	1.75	2.08	2.42	2.67	2.84	2.96	3.03	3.10	3.11	3.04	2.94	2.81	2.63	2.51	2.56	2.75	2.98	3.26	3.59	3.84	3.92	3.82	3.58	3.21	3.02	3.09	3.40	3.69	3.75	3.54	3.17	2.80	2.55	2.45	2.31	2.10	2.02	2.03	2.10	2.42	3.01	3.58	3.65	3.27	2.72	2.29	1.97	1.81	1.81	1.90	1.99	2.02	1.87	1.83	2.05	2.26	2.26	2.33	2.51	2.72	3.13	3.65	4.10	4.21	4.06	3.75	3.16	2.48	2.17	2.29	2.62	2.85	2.92	2.91	2.88	2.82	2.70	2.51	2.31	2.09	1.81	1.57	1.43	1.41	1.57	1.88	2.08	2.24	2.88	3.98	4.40	3.98	3.23	2.79	2.57	2.43	2.30	2.16	2.10	2.04	2.03	2.03	2.18	2.27	2.17	2.14	2.14
4.92	4.46	3.50	2.85	2.39	2.05	1.80	1.52	1.27	1.12	1.06	0.99	0.91	0.95	1.23	1.44	1.46	1.51	1.66	1.92	2.11	2.19	2.23	2.31	2.47	2.67	2.84	2.95	2.96	2.90	2.82	2.79	2.85	2.98	3.20	3.57	3.92	4.06	4.11	4.14	4.03	3.76	3.59	3.62	3.77	3.78	3.50	3.02	2.64	2.42	2.36	2.38	2.30	2.10	2.02	2.06	2.19	2.55	3.12	3.57	3.55	3.03	2.49	2.13	1.88	1.75	1.70	1.76	1.89	1.94	1.77	1.69	1.94	2.28	2.28	2.27	2.39	2.63	2.97	3.34	3.58	3.64	3.47	3.10	2.62	2.36	2.59	3.24	3.72	3.85	3.76	3.62	3.46	3.16	2.85	2.53	2.31	2.16	1.99	1.80	1.61	1.55	1.78	2.13	2.41	2.89	3.74	4.52	4.59	3.90	3.03	2.54	2.34	2.22	2.11	2.07	2.03	1.86	1.71	1.64	1.64	1.64	1.82	2.03	2.03
5.00	4.33	3.09	2.37	1.97	1.71	1.49	1.26	1.15	1.18	1.25	1.22	1.07	1.35	1.38	1.26	1.40	1.49	1.54	1.58	1.55	1.54	1.60	1.75	2.03	2.38	2.64	2.83	2.91	2.93	2.98	3.05	3.15	3.33	3.70	4.15	4.34	4.32	4.30	4.31	4.23	3.94	3.70	3.58	3.54	3.41	3.09	2.73	2.47	2.30	2.30	2.38	2.35	2.13	2.03	2.11	2.32	2.69	3.05	3.30	3.17	2.63	2.05	1.73	1.55	1.45	1.44	1.55	1.75	1.87	1.73	1.65	1.95	2.33	2.32	2.19	2.26	2.50	2.79	2.90	2.78	2.73	2.78	2.78	2.82	3.06	3.73	4.34	4.56	4.54	4.43	4.24	3.89	3.32	2.84	2.55	2.30	2.15	2.10	2.15	2.22	2.37	2.68	3.14	3.56	3.93	4.35	4.67	4.47	3.70	2.80	2.36	2.18	2.02	1.91	1.96	2.05	2.06	2.08	2.09	2.05	2.02	2.25	2.49	2.49
4.84	4.11	2.83	2.11	1.81	1.63	1.49	1.39	1.41	1.54	1.66	1.66	1.48	1.27	1.65	1.24	1.40	1.49	1.47	1.36	1.32	1.40	1.58	1.82	2.13	2.42	2.61	2.74	2.83	2.95	3.13	3.31	3.56	3.95	4.43	4.77	4.82	4.69	4.48	4.23	4.05	3.66	3.37	3.25	3.16	3.13	3.05	2.96	2.85	2.77	2.68	2.59	2.43	2.17	2.02	2.08	2.30	2.57	2.73	2.81	2.71	2.27	1.72	1.46	1.33	1.27	1.33	1.50	1.69	1.81	1.75	1.73	2.05	2.41	2.37	2.13	2.12	2.38	2.68	2.64	2.35	2.26	2.43	2.78	3.20	3.77	4.34	4.61	4.49	4.30	4.13	3.90	3.57	3.19	2.80	2.50	2.19	1.96	1.89	2.11	2.55	3.10	3.68	4.11	4.29	4.30	4.37	4.42	4.12	3.44	2.79	2.46	2.35	2.21	2.01	1.97	2.06	2.19	2.38	2.61	2.85	2.96	2.89	2.85	2.85
4.53	3.91	2.81	2.18	1.97	1.87	1.77	1.73	1.81	1.97	2.06	1.97	1.73	1.58	1.47	1.46	1.53	1.57	1.56	1.53	1.62	1.80	1.99	2.16	2.32	2.47	2.54	2.63	2.82	3.04	3.33	3.62	4.07	4.55	4.89	5.04	4.98	4.74	4.40	4.01	3.63	3.26	2.96	2.78	2.78	2.81	2.90	2.97	3.05	3.09	3.04	2.79	2.47	2.14	1.94	1.94	2.07	2.17	2.19	2.32	2.34	2.01	1.58	1.41	1.39	1.40	1.48	1.56	1.63	1.72	1.79	1.88	2.16	2.46	2.39	2.04	2.01	2.40	2.72	2.55	2.21	2.11	2.25	2.73	3.38	3.90	4.21	4.18	3.91	3.63	3.35	3.06	2.86	2.75	2.61	2.35	2.02	1.77	1.75	2.06	2.77	3.48	3.90	4.03	3.91	3.72	3.88	4.03	3.82	3.31	2.78	2.53	2.42	2.27	2.07	2.03	2.07	2.17	2.39	2.75	3.04	3.09	2.86	2.67	2.67
4.28	3.80	2.92	2.41	2.21	2.10	2.01	2.03	2.19	2.32	2.28	2.05	1.78	1.70	1.68	1.72	1.77	1.82	1.90	2.03	2.21	2.39	2.52	2.60	2.64	2.66	2.67	2.78	3.03	3.27	3.59	3.98	4.52	4.89	4.92	4.78	4.61	4.30	3.88	3.46	3.10	2.80	2.50	2.35	2.37	2.51	2.63	2.64	2.71	2.76	2.71	2.54	2.32	2.05	1.88	1.88	1.95	1.93	1.90	2.11	2.21	2.03	1.79	1.74	1.74	1.67	1.62	1.60	1.67	1.74	1.79	1.90	2.15	2.40	2.30	1.94	1.99	2.48	2.77	2.49	2.14	2.15	2.43	2.92	3.39	3.66	3.75	3.69	3.51	3.28	3.01	2.74	2.49	2.33	2.28	2.16	1.94	1.79	1.83	2.17	2.75	3.14	3.12	2.98	2.84	2.83	3.46	3.98	3.88	3.40	2.87	2.55	2.35	2.17	2.08	2.08	2.10	2.14	2.32	2.48	2.48	2.20	2.17	2.20	2.20
4.14	3.73	2.99	2.55	2.38	2.30	2.32	2.45	2.59	2.58	2.39	2.09	1.87	1.77	1.77	1.85	1.97	2.11	2.29	2.50	2.73	2.90	2.98	2.98	2.94	2.89	2.96	3.15	3.40	3.56	3.88	4.30	4.71	4.81	4.56	4.24	3.96	3.63	3.22	2.89	2.61	2.34	2.06	1.90	2.03	2.34	2.43	2.21	2.03	1.91	1.81	1.83	1.88	1.89	1.91	2.04	2.14	2.14	2.15	2.27	2.34	2.33	2.30	2.26	2.00	1.76	1.75	1.85	1.87	1.74	1.61	1.71	2.01	2.28	2.27	2.06	2.14	2.59	2.78	2.43	2.14	2.34	2.76	3.05	3.21	3.33	3.30	3.13	3.01	2.93	2.80	2.65	2.46	2.27	2.16	2.02	1.88	1.77	1.73	1.88	2.13	2.34	2.28	2.27	2.32	2.67	3.68	4.39	4.23	3.66	3.18	2.83	2.58	2.37	2.21	2.14	2.13	2.08	2.03	1.86	1.58	1.46	1.77	2.09	2.09
4.06	3.71	3.09	2.77	2.70	2.76	2.87	2.95	2.91	2.72	2.43	2.15	1.99	1.85	1.84	1.97	2.16	2.35	2.55	2.78	2.97	3.07	3.07	3.00	2.94	2.96	3.13	3.40	3.65	3.86	4.22	4.50	4.62	4.39	4.00	3.74	3.51	3.21	2.78	2.44	2.12	1.86	1.64	1.50	1.71	2.18	2.16	1.78	1.53	1.46	1.40	1.39	1.48	1.68	1.95	2.25	2.41	2.45	2.43	2.41	2.50	2.60	2.53	2.28	1.94	1.91	2.07	2.05	1.75	1.39	1.35	1.59	1.90	2.14	2.26	2.28	2.47	2.78	2.84	2.50	2.25	2.46	2.73	2.86	2.97	3.07	2.92	2.57	2.33	2.18	2.07	2.06	2.14	2.20	2.16	1.99	1.82	1.68	1.63	1.74	1.92	2.05	2.14	2.31	2.60	3.31	4.43	4.92	4.51	3.71	3.22	2.95	2.70	2.42	2.16	2.09	2.13	2.12	1.99	1.77	1.63	1.75	2.22	2.59	2.59
4.08	3.82	3.36	3.14	3.13	3.18	3.20	3.13	2.96	2.70	2.40	2.22	2.13	2.04	2.12	2.29	2.45	2.59	2.74	2.85	2.87	2.85	2.79	2.73	2.78	2.97	3.20	3.51	3.88	4.22	4.53	4.53	4.30	3.86	3.49	3.34	3.13	2.85	2.47	2.08	1.68	1.36	1.17	1.12	1.44	1.97	2.01	1.75	1.60	1.57	1.49	1.39	1.41	1.68	2.10	2.42	2.46	2.38	2.29	2.31	2.46	2.63	2.50	2.24	2.18	2.28	2.18	1.75	1.29	1.20	1.42	1.79	2.05	2.19	2.35	2.57	2.82	2.98	3.15	2.70	2.49	2.50	2.61	2.72	2.87	2.88	2.63	2.31	2.01	1.73	1.55	1.55	1.72	1.95	2.03	1.97	1.84	1.72	1.83	2.06	2.21	2.31	2.46	2.73	3.25	4.24	5.13	5.19	4.40	3.36	2.92	2.75	2.57	2.33	2.13	2.09	2.18	2.23	2.21	2.23	2.37	2.59	2.84	3.00	3.00
4.26	4.01	3.58	3.37	3.28	3.20	3.06	2.87	2.65	2.42	2.25	2.19	2.18	2.25	2.45	2.60	2.68	2.75	2.77	2.72	2.64	2.57	2.52	2.54	2.71	2.99	3.30	3.69	4.18	4.54	4.63	4.40	3.95	3.49	3.10	2.85	2.61	2.38	2.11	1.76	1.33	1.01	0.91	1.03	1.46	1.99	2.21	2.07	1.85	1.60	1.37	1.37	1.67	2.10	2.47	2.56	2.42	2.28	2.21	2.28	2.44	2.61	2.54	2.42	2.38	2.22	1.73	1.37	1.35	1.65	2.03	2.27	2.41	2.51	2.68	2.92	3.12	3.13	3.09	2.99	3.31	2.71	2.76	2.88	2.93	2.81	2.54	2.31	2.18	2.09	1.96	1.78	1.77	1.85	1.91	1.94	1.93	1.96	2.14	2.36	2.54	2.74	2.99	3.30	3.91	4.93	5.51	5.10	3.95	3.07	2.76	2.62	2.49	2.45	2.42	2.35	2.29	2.18	2.15	2.30	2.62	2.98	3.01	2.91	2.91
4.49	4.18	3.63	3.31	3.11	2.94	2.72	2.46	2.19	2.02	2.01	2.02	2.00	2.17	2.39	2.52	2.59	2.61	2.55	2.48	2.43	2.40	2.40	2.47	2.67	2.98	3.35	3.88	4.43	4.68	4.47	4.02	3.68	3.27	2.75	2.39	2.13	1.93	1.76	1.52	1.18	0.97	0.99	1.31	1.70	2.21	2.45	2.14	1.60	1.22	1.23	1.64	2.34	2.87	2.97	2.81	2.60	2.45	2.38	2.38	2.46	2.62	2.59	2.45	2.24	1.93	1.73	1.84	2.22	2.64	2.91	3.01	3.06	3.11	3.23	3.41	3.51	3.47	3.42	3.37	3.09	2.91	2.96	3.06	3.01	2.84	2.64	2.45	2.39	2.40	2.30	2.09	2.02	1.95	1.94	1.99	2.18	2.54	2.79	2.87	2.95	3.15	3.51	3.95	4.65	5.51	5.62	4.75	3.60	3.01	2.76	2.56	2.43	2.47	2.55	2.45	2.20	1.93	1.82	2.02	2.41	2.74	2.66	2.50	2.50
4.60	4.26	3.55	3.12	2.88	2.65	2.40	2.12	1.87	1.74	1.81	1.85	1.81	1.94	2.09	2.18	2.28	2.31	2.30	2.27	2.24	2.24	2.28	2.37	2.55	2.86	3.29	3.96	4.60	4.67	4.22	3.70	3.43	3.05	2.43	1.99	1.80	1.63	1.44	1.25	1.07	0.94	1.07	1.37	1.67	2.15	2.36	1.92	1.38	1.31	1.78	2.70	3.48	3.68	3.47	3.11	2.83	2.62	2.53	2.54	2.60	2.69	2.68	2.55	2.51	2.61	2.95	3.37	3.72	3.97	4.06	4.10	4.12	4.13	4.16	4.25	4.27	4.16	3.97	3.67	3.24	2.98	3.01	3.05	2.96	2.80	2.61	2.45	2.33	2.21	2.02	1.98	2.01	2.00	2.10	2.32	2.69	3.11	3.32	3.35	3.36	3.57	4.06	4.73	5.42	5.74	5.36	4.20	3.28	2.87	2.59	2.37	2.27	2.27	2.28	2.12	1.90	1.67	1.53	1.69	1.99	2.14	2.12	2.16	2.16
4.61	4.26	3.44	2.94	2.72	2.50	2.24	2.00	1.80	1.71	1.82	1.87	1.92	2.01	2.07	2.12	2.16	2.17	2.15	2.11	2.07	2.07	2.12	2.23	2.42	2.73	3.25	4.07	4.73	4.57	3.93	3.48	3.24	2.86	2.28	1.83	1.62	1.38	1.07	0.90	0.87	0.80	0.94	1.18	1.51	2.02	2.28	2.01	1.77	2.10	3.09	4.07	4.40	4.16	3.68	3.22	2.90	2.70	2.66	2.76	2.84	2.92	2.96	3.12	3.44	3.88	4.36	4.76	5.01	5.14	5.19	5.22	5.24	5.25	5.21	5.15	5.03	4.81	4.41	3.85	3.34	3.04	3.00	2.97	2.84	2.61	2.40	2.26	2.05	1.80	1.74	1.84	1.88	1.97	2.24	2.58	2.85	2.95	2.95	2.97	3.23	3.80	4.59	5.37	5.79	5.53	4.71	3.64	2.94	2.57	2.27	2.09	2.00	1.98	1.94	1.87	1.72	1.52	1.36	1.41	1.61	1.86	2.25	2.58	2.58
4.68	4.25	3.37	2.85	2.65	2.42	2.19	2.04	1.91	1.91	2.05	2.16	2.28	2.35	2.36	2.33	2.26	2.15	2.04	1.96	1.94	1.95	2.02	2.14	2.34	2.72	3.41	4.33	4.79	4.36	3.51	3.22	3.05	2.68	2.29	1.96	1.62	1.23	0.87	0.80	0.84	0.90	1.14	1.41	1.77	2.25	2.61	2.66	2.81	3.50	4.46	4.86	4.64	4.03	3.51	3.12	2.85	2.71	2.65	2.70	2.82	3.01	3.23	3.58	4.03	4.41	4.69	4.92	5.07	5.16	5.24	5.30	5.36	5.37	5.30	5.14	4.94	4.70	4.36	3.96	3.57	3.26	3.03	2.87	2.71	2.44	2.20	2.03	1.70	1.45	1.60	1.72	1.72	1.75	1.86	1.98	2.04	1.98	1.90	2.00	2.65	3.74	4.88	5.52	5.51	4.81	3.98	3.26	2.76	2.42	2.20	2.00	1.84	1.70	1.64	1.70	1.61	1.40	1.24	1.27	1.54	2.09	2.81	3.19	3.19
4.79	4.28	3.32	2.83	2.60	2.33	2.11	2.03	2.01	2.07	2.23	2.44	2.60	2.63	2.56	2.42	2.24	2.04	1.90	1.85	1.85	1.88	1.95	2.09	2.36	2.85	3.63	4.49	4.67	3.95	3.11	2.91	2.78	2.52	2.29	2.06	1.68	1.34	1.12	1.11	1.29	1.58	1.91	2.22	2.57	3.05	3.58	3.95	4.38	4.88	5.13	4.92	4.26	3.55	3.15	2.88	2.63	2.44	2.32	2.28	2.46	2.77	3.22	3.61	3.92	4.02	3.93	3.85	3.82	3.91	4.03	4.18	4.23	4.22	4.12	3.96	3.85	3.71	3.60	3.53	3.44	3.35	3.19	2.89	2.61	2.28	2.02	1.76	1.35	1.24	1.46	1.59	1.57	1.47	1.36	1.33	1.36	1.46	1.68	2.06	2.92	4.18	5.10	5.21	4.52	3.58	3.10	2.81	2.60	2.45	2.29	2.03	1.74	1.49	1.37	1.51	1.48	1.30	1.31	1.52	1.86	2.47	3.24	3.62	3.62
4.78	4.21	3.23	2.71	2.45	2.21	2.05	1.97	1.99	2.10	2.21	2.43	2.58	2.57	2.42	2.18	1.94	1.77	1.69	1.66	1.68	1.75	1.86	2.10	2.48	3.01	3.74	4.40	4.37	3.54	2.82	2.66	2.54	2.35	2.18	1.87	1.65	1.56	1.53	1.73	2.03	2.38	2.72	3.10	3.62	4.26	4.82	5.09	5.21	5.18	4.93	4.35	3.69	3.14	2.83	2.61	2.33	2.08	1.97	2.00	2.25	2.62	3.07	3.45	3.51	3.21	2.89	2.66	2.61	2.65	2.73	2.82	2.80	2.70	2.63	2.53	2.52	2.48	2.48	2.54	2.70	2.85	2.87	2.81	2.47	2.93	1.81	1.44	1.04	1.15	1.41	1.59	1.63	1.54	1.53	1.68	1.86	2.18	2.77	3.55	4.45	4.96	4.93	4.42	3.45	2.68	2.44	2.33	2.23	2.16	2.04	1.81	1.58	1.35	1.26	1.43	1.35	1.18	1.36	1.74	2.17	2.73	3.55	4.04	4.04
4.60	4.06	3.11	2.55	2.27	2.10	2.02	1.93	1.95	2.06	2.06	2.14	2.20	2.12	1.94	1.71	1.53	1.44	1.40	1.40	1.46	1.60	1.84	2.23	2.69	3.16	3.75	4.21	4.09	3.42	2.81	2.62	2.49	2.29	1.98	1.61	1.57	1.62	1.73	2.03	2.38	2.74	3.12	3.63	4.38	5.09	5.42	5.38	5.00	4.55	4.09	3.61	3.18	2.85	2.64	2.46	2.20	1.99	2.00	2.15	2.42	2.69	2.99	3.27	3.15	2.73	2.44	2.37	2.41	2.41	2.31	2.16	2.03	1.93	1.86	1.80	1.80	1.76	1.66	1.61	1.69	1.80	1.85	1.91	1.95	2.63	1.66	1.27	1.00	1.20	1.54	1.79	1.89	2.01	2.33	2.69	3.08	3.59	4.32	4.89	4.99	4.72	4.20	3.54	2.83	2.39	2.19	2.03	1.88	1.73	1.53	1.42	1.40	1.24	1.24	1.41	1.38	1.21	1.22	1.57	2.17	2.80	3.65	4.21	4.21
4.34	3.89	3.05	2.51	2.21	2.01	1.88	1.76	1.73	1.83	1.78	1.70	1.60	1.46	1.32	1.20	1.13	1.10	1.11	1.23	1.44	1.69	2.03	2.46	2.88	3.32	3.79	4.11	4.01	3.60	3.08	2.73	2.48	2.20	1.77	1.38	1.43	1.50	1.66	1.91	2.26	2.68	3.17	3.91	4.85	5.38	5.36	4.77	3.95	3.48	3.21	3.00	2.82	2.65	2.53	2.41	2.22	2.09	2.21	2.39	2.55	2.65	2.80	2.99	2.93	2.70	2.55	2.51	2.45	2.27	2.00	1.79	1.72	1.68	1.58	1.54	1.57	1.46	1.23	1.08	1.13	1.28	1.41	1.51	1.58	1.65	1.59	1.40	1.34	1.51	1.77	2.03	2.30	2.69	3.04	3.42	3.93	4.54	4.87	4.72	4.14	3.56	3.23	2.91	2.70	2.47	2.15	1.93	1.85	1.77	1.57	1.39	1.39	1.36	1.35	1.42	1.57	1.67	1.68	1.85	2.18	2.73	3.64	4.17	4.17
4.15	3.81	3.14	2.62	2.28	1.96	1.68	1.46	1.38	1.46	1.44	1.31	1.10	1.01	0.98	0.91	0.87	0.90	1.05	1.34	1.66	2.00	2.35	2.70	3.09	3.54	3.93	4.15	4.09	3.77	3.19	2.70	2.37	2.04	1.63	1.29	1.35	1.48	1.63	1.82	2.14	2.62	3.28	4.28	5.15	5.33	4.80	3.87	3.16	2.82	2.65	2.54	2.47	2.44	2.38	2.28	2.13	2.07	2.20	2.27	2.24	2.22	2.36	2.65	2.89	2.92	2.79	2.58	2.21	1.83	1.54	1.48	1.54	1.53	1.44	1.43	1.50	1.41	1.20	1.08	1.88	1.49	1.83	1.96	2.46	1.77	1.67	1.66	1.73	1.82	1.94	2.19	2.55	2.89	3.27	3.81	4.35	4.53	4.20	3.44	2.79	2.49	2.40	2.50	2.73	2.73	2.54	2.49	2.56	2.49	2.20	1.85	1.66	1.69	1.64	1.59	1.79	2.13	2.42	2.56	2.63	2.93	3.67	4.14	4.14
4.14	3.90	3.35	2.83	2.40	2.02	1.68	1.46	1.34	1.37	1.34	1.20	1.04	1.04	1.06	1.04	1.02	1.15	1.43	1.75	2.08	2.43	2.75	3.10	3.50	3.90	4.12	4.22	4.17	3.82	3.13	2.69	2.46	2.16	1.81	1.60	1.66	1.82	1.92	2.07	2.35	2.84	3.68	4.76	5.25	4.97	4.02	3.12	2.58	2.34	2.23	2.14	2.12	2.14	2.12	2.01	1.88	1.83	1.85	1.74	1.62	1.63	1.95	2.54	3.08	3.16	2.82	2.30	1.81	1.50	1.44	1.50	1.50	1.37	1.22	1.37	1.57	1.69	1.24	1.28	1.57	2.18	2.72	2.71	2.37	2.05	1.88	1.86	1.93	1.99	2.08	2.27	2.56	2.93	3.53	4.10	4.18	3.72	2.87	2.17	1.84	1.77	1.94	2.51	3.11	3.36	3.48	3.56	3.52	3.29	2.90	2.40	2.00	1.95	1.92	1.86	1.93	2.29	2.86	3.36	3.66	3.84	3.97	3.99	3.99
4.32	4.06	3.46	2.93	2.50	2.16	1.94	1.79	1.65	1.57	1.47	1.37	1.33	1.37	1.47	1.55	1.67	1.90	2.14	2.39	2.69	3.04	3.36	3.71	4.07	4.26	4.26	4.28	4.29	4.00	3.48	3.14	2.94	2.63	2.29	2.15	2.21	2.33	2.44	2.58	2.81	3.26	4.14	5.04	5.12	4.32	3.28	2.46	2.02	1.88	1.84	1.77	1.78	1.88	1.92	1.81	1.66	1.55	1.44	1.36	1.40	1.59	2.05	2.79	3.33	3.20	2.55	1.94	1.63	1.63	1.79	1.82	1.55	1.18	1.02	1.12	1.28	1.38	1.55	1.97	2.64	3.34	3.52	3.23	2.53	2.18	2.01	1.96	2.01	2.11	2.23	2.42	2.76	3.29	3.84	3.87	3.27	2.44	1.68	1.37	1.37	1.60	2.17	3.10	3.83	4.12	4.06	3.84	3.55	3.20	2.81	2.37	2.11	2.09	2.16	2.25	2.43	2.90	3.59	4.21	4.51	4.47	3.90	3.50	3.50
4.55	4.14	3.30	2.78	2.46	2.28	2.17	2.03	1.85	1.69	1.54	1.50	1.59	1.75	1.99	2.24	2.52	2.81	3.05	3.26	3.53	3.76	4.01	4.30	4.47	4.40	4.30	4.38	4.44	4.17	3.73	3.39	3.12	2.80	2.53	2.40	2.42	2.53	2.70	2.89	3.12	3.56	4.38	4.91	4.60	3.55	2.60	1.96	1.61	1.54	1.53	1.39	1.43	1.70	1.82	1.74	1.65	1.57	1.55	1.67	1.89	2.21	2.66	3.22	3.45	3.08	2.35	1.96	1.99	2.18	2.25	1.95	1.40	1.03	1.09	1.40	1.70	2.01	2.50	3.18	3.83	4.02	3.67	2.91	2.37	2.10	1.99	1.97	2.05	2.19	2.36	2.59	2.99	3.46	3.55	2.92	1.98	1.39	1.19	1.28	1.64	2.21	3.03	3.79	4.34	4.33	3.73	3.11	2.78	2.53	2.29	2.15	2.13	2.21	2.42	2.77	3.33	3.98	4.44	4.54	4.36	3.89	3.12	2.64	2.64
4.69	4.08	3.02	2.50	2.30	2.21	2.14	1.99	1.82	1.65	1.46	1.45	1.64	1.95	2.31	2.67	3.03	3.40	3.71	3.96	4.08	4.18	4.36	4.52	4.49	4.33	4.31	4.48	4.46	4.01	3.36	2.93	2.62	2.42	2.37	2.36	2.40	2.52	2.69	2.92	3.21	3.64	4.26	4.47	3.88	2.82	2.06	1.60	1.35	1.34	1.27	1.05	1.14	1.56	1.76	1.81	1.85	1.89	2.03	2.21	2.47	2.87	3.33	3.66	3.52	3.07	2.53	2.48	2.71	2.77	2.42	1.82	1.38	1.42	1.82	2.25	2.69	3.18	3.76	4.25	4.36	3.99	3.28	2.56	2.14	1.96	1.92	1.98	2.12	2.27	2.44	2.68	3.03	3.19	2.71	1.84	1.38	1.35	1.62	2.09	2.62	3.23	3.80	4.20	4.30	3.94	3.05	2.36	2.04	1.82	1.75	1.94	2.16	2.28	2.58	3.18	3.88	4.26	4.23	3.86	3.32	2.64	2.19	2.09	2.09
4.69	4.03	2.85	2.26	2.03	1.84	1.74	1.69	1.66	1.54	1.31	1.25	1.44	1.77	2.12	2.46	2.84	3.16	3.41	3.61	3.79	4.00	4.21	4.25	4.08	3.98	4.20	4.48	4.33	3.72	3.07	2.60	2.28	2.17	2.29	2.43	2.56	2.68	2.77	2.89	3.09	3.39	3.83	3.92	3.37	2.38	1.72	1.44	1.36	1.36	1.24	1.05	1.14	1.56	1.81	2.00	2.16	2.30	2.46	2.61	2.91	3.47	3.96	4.08	3.69	3.22	3.00	3.10	3.24	3.08	2.58	2.12	2.09	2.61	3.21	3.69	4.13	4.50	4.70	4.62	4.19	3.51	2.85	2.31	2.41	1.88	1.86	1.95	2.14	2.31	2.47	2.68	2.92	2.75	2.06	1.65	1.73	2.11	2.57	3.05	3.53	3.90	4.08	4.08	3.91	3.46	2.69	2.08	1.76	1.57	1.51	1.75	2.06	2.26	2.68	3.33	3.70	3.53	2.96	2.48	2.07	1.68	1.74	1.90	1.90
4.63	3.90	2.64	2.03	1.69	1.41	1.25	1.26	1.40	1.35	1.08	0.93	0.99	1.21	1.46	1.68	1.97	2.17	2.24	2.39	2.83	3.34	3.59	3.48	3.21	3.38	4.00	4.40	4.15	3.51	3.08	2.87	2.70	2.57	2.55	2.59	2.65	2.70	2.70	2.68	2.72	2.93	3.38	3.60	3.18	2.30	1.78	1.72	1.74	1.72	1.66	1.59	1.62	1.83	1.97	2.12	2.34	2.61	2.88	3.23	3.73	4.27	4.48	4.26	3.76	3.37	3.38	3.60	3.67	3.49	3.29	3.29	3.65	4.16	4.55	4.84	5.04	5.04	4.79	4.29	3.68	3.09	2.59	2.15	1.92	1.86	1.81	1.87	2.08	2.26	2.42	2.60	2.67	2.33	1.96	2.07	2.50	2.87	3.20	3.53	3.79	3.83	3.65	3.45	3.43	3.22	2.63	2.12	1.91	1.78	1.69	1.77	1.95	2.19	2.64	2.96	2.78	2.23	1.61	1.26	1.06	1.19	1.79	2.21	2.21
4.39	3.63	2.41	1.78	1.44	1.18	0.99	0.99	1.19	1.16	0.90	0.64	0.56	0.70	0.85	0.98	1.16	1.35	1.57	1.89	2.36	2.78	2.87	2.62	2.52	3.02	3.94	4.33	3.96	3.17	2.89	2.89	2.91	2.91	2.78	2.59	2.43	2.38	2.29	2.22	2.27	2.67	3.30	3.65	3.37	2.81	2.49	2.48	2.48	2.43	2.37	2.26	2.16	2.15	2.09	2.12	2.32	2.68	3.20	3.86	4.42	4.62	4.42	3.90	3.33	3.17	3.50	3.81	3.88	3.83	3.95	4.25	4.61	4.83	4.92	4.95	4.87	4.58	4.10	3.60	3.16	2.72	2.33	2.21	1.81	1.74	1.73	1.81	2.03	2.20	2.35	2.46	2.38	2.10	2.11	2.47	2.82	3.05	3.28	3.44	3.40	3.11	2.76	2.77	3.06	3.00	2.41	1.90	1.76	1.68	1.63	1.69	1.83	2.02	2.20	2.01	1.49	1.05	0.80	0.72	0.85	1.39	2.38	2.97	2.97
4.02	3.40	2.29	1.64	1.33	1.14	0.98	0.99	1.13	1.09	0.89	0.62	0.48	0.61	0.73	0.79	0.93	1.23	1.66	2.10	2.51	2.72	2.57	2.33	2.44	3.15	4.08	4.29	3.72	2.80	2.49	2.48	2.55	2.64	2.59	2.34	2.04	1.89	1.86	1.89	2.12	2.75	3.58	3.96	3.73	3.32	3.14	3.08	3.01	2.90	2.66	2.40	2.27	2.25	2.19	2.22	2.44	2.87	3.52	4.13	4.34	4.13	3.66	3.05	2.76	2.96	3.50	3.78	3.66	3.62	3.84	4.12	4.30	4.32	4.24	4.08	3.80	3.42	3.10	2.82	2.51	2.20	1.91	1.68	1.95	2.16	1.56	1.73	1.99	2.18	2.28	2.32	2.20	2.08	2.25	2.55	2.71	2.82	2.91	2.86	2.61	2.23	2.04	2.33	2.76	2.70	2.04	1.49	1.34	1.35	1.42	1.59	1.77	1.81	1.64	1.26	0.98	0.87	0.89	1.01	1.33	1.99	3.03	3.64	3.64
3.76	3.29	2.36	1.72	1.41	1.22	1.11	1.16	1.14	1.09	1.00	0.84	0.81	0.89	0.92	0.95	1.10	1.45	1.92	2.33	2.64	2.77	2.65	2.53	2.81	3.59	4.28	4.25	3.52	2.57	2.18	2.08	2.04	2.06	2.12	2.07	1.92	1.82	1.86	2.05	2.48	3.25	3.99	4.20	3.85	3.37	3.19	3.18	3.11	2.88	2.52	2.26	2.20	2.27	2.30	2.40	2.67	3.18	3.75	3.97	3.68	3.16	2.72	2.37	2.46	2.97	3.55	3.62	3.21	3.07	3.22	3.33	3.30	3.26	3.18	2.97	2.63	2.30	2.09	1.96	1.73	1.50	1.28	1.11	1.02	1.12	1.35	1.65	1.94	2.09	2.16	2.19	2.08	2.02	2.16	2.33	2.38	2.33	2.17	1.93	1.68	1.54	1.68	2.12	2.53	2.47	2.00	1.60	1.60	1.80	1.94	1.97	1.98	1.86	1.64	1.48	1.47	1.54	1.68	1.87	2.17	2.63	3.42	3.94	3.94
3.63	3.21	2.41	1.86	1.54	1.32	1.28	1.33	1.25	1.23	1.25	1.28	1.34	1.38	1.39	1.43	1.58	1.84	2.18	2.54	2.79	2.94	3.03	3.12	3.44	4.11	4.52	4.27	3.49	2.55	2.09	1.90	1.73	1.68	1.86	2.09	2.24	2.37	2.51	2.71	3.14	3.75	4.21	4.21	3.70	3.17	3.04	3.05	2.92	2.70	2.48	2.33	2.29	2.34	2.38	2.52	2.82	3.31	3.69	3.52	2.95	2.49	2.17	2.05	2.31	2.91	3.48	3.39	2.85	2.64	2.67	2.61	2.48	2.39	2.28	2.13	1.82	1.49	1.23	1.08	0.93	0.70	0.54	0.42	0.47	0.81	1.30	1.72	1.98	2.08	2.13	2.14	2.01	1.88	1.89	1.93	1.85	1.58	1.35	1.19	1.19	1.40	1.79	2.19	2.45	2.43	2.31	2.37	2.62	2.74	2.60	2.34	2.20	2.12	2.08	2.14	2.21	2.26	2.32	2.47	2.73	3.06	3.57	3.90	3.90
3.54	3.12	2.34	1.83	1.54	1.38	1.42	1.44	1.45	1.55	1.69	1.80	1.82	1.82	1.85	1.94	2.07	2.21	2.45	2.82	3.08	3.30	3.54	3.76	4.09	4.62	4.82	4.40	3.60	2.78	2.35	2.12	1.94	1.92	2.10	2.38	2.66	2.91	3.06	3.20	3.44	3.82	4.10	4.00	3.51	3.03	2.88	2.78	2.57	2.41	2.36	2.34	2.34	2.37	2.45	2.65	3.01	3.39	3.43	2.95	2.35	2.06	1.86	1.84	2.18	2.91	3.44	3.21	2.61	2.33	2.21	2.07	1.97	1.86	1.69	1.48	1.19	0.84	0.67	0.69	0.64	0.50	0.44	0.43	0.55	1.00	1.55	1.93	2.11	2.22	2.29	2.26	2.09	1.87	1.73	1.63	1.41	1.17	1.09	1.16	1.40	1.77	2.08	2.30	2.45	2.58	2.82	3.18	3.29	3.05	2.60	2.28	2.23	2.27	2.30	2.36	2.43	2.45	2.47	2.58	2.78	3.09	3.48	3.69	3.69
3.48	3.04	2.24	1.73	1.46	1.40	1.45	1.47	1.59	1.81	2.05	2.18	2.25	2.31	2.37	2.43	2.52	2.65	2.83	3.14	3.38	3.62	3.81	4.10	4.57	5.05	5.01	4.43	3.61	3.01	2.73	2.60	2.53	2.48	2.50	2.57	2.68	2.81	2.89	2.98	3.20	3.57	3.82	3.72	3.31	2.87	2.64	2.40	2.11	1.97	2.00	2.10	2.23	2.37	2.47	2.78	3.11	3.19	2.80	2.20	1.84	1.71	1.63	1.80	2.32	3.07	3.33	2.91	2.29	1.99	1.82	1.67	1.60	1.46	1.22	0.99	0.76	0.54	0.59	0.76	0.80	0.63	0.49	0.60	0.98	1.54	2.01	2.17	2.25	2.40	2.49	2.45	2.27	2.01	1.80	1.62	1.47	1.40	1.48	1.60	1.75	1.93	2.11	2.26	2.44	2.80	3.35	3.62	3.38	2.91	2.55	2.37	2.34	2.30	2.21	2.10	2.01	1.96	2.02	2.18	2.42	2.77	3.28	3.53	3.53
3.40	2.92	2.08	1.61	1.41	1.39	1.36	1.33	1.41	1.64	1.90	2.14	2.40	2.66	2.84	2.94	3.01	3.13	3.28	3.42	3.57	3.77	3.95	4.33	4.85	5.10	4.84	4.14	3.39	2.98	2.84	2.85	2.86	2.75	2.62	2.49	2.42	2.39	2.44	2.66	3.00	3.35	3.53	3.46	3.17	2.78	2.44	2.06	1.74	1.58	1.58	1.72	1.99	2.20	2.41	2.67	2.78	2.50	1.89	1.57	1.48	1.42	1.55	1.95	2.48	2.93	2.97	2.51	1.95	1.66	1.51	1.34	1.23	1.08	0.84	0.69	0.67	0.66	0.62	0.64	0.65	0.55	0.60	1.04	1.68	2.26	2.54	2.45	2.44	2.63	2.73	2.61	2.39	2.15	1.96	1.78	1.66	1.59	1.59	1.58	1.61	1.75	1.98	2.19	2.49	3.10	3.84	3.91	3.33	2.86	2.69	2.62	2.51	2.30	2.03	1.79	1.62	1.58	1.69	1.95	2.28	2.71	3.33	3.66	3.66
3.26	2.72	1.84	1.49	1.42	1.43	1.32	1.17	1.08	1.13	1.31	1.66	2.18	2.70	3.08	3.32	3.44	3.54	3.60	3.63	3.74	3.95	4.18	4.57	4.88	4.82	4.32	3.69	3.07	2.72	2.61	2.63	2.64	2.58	2.53	2.43	2.32	2.31	2.47	2.76	3.02	3.19	3.26	3.30	3.20	2.83	2.34	1.84	1.46	1.32	1.37	1.55	1.85	2.19	2.24	2.28	2.07	1.58	1.22	1.22	1.23	1.20	1.47	1.88	2.19	2.45	2.54	2.26	1.76	1.43	1.28	1.14	1.02	0.90	0.71	0.61	0.59	0.74	0.43	0.55	0.76	0.95	1.25	1.80	2.46	2.99	3.08	2.91	2.94	3.16	3.10	2.78	2.46	2.22	2.06	1.85	1.57	1.33	1.19	1.10	1.22	1.58	1.97	2.26	2.71	3.54	4.24	4.08	3.30	2.77	2.54	2.44	2.34	2.17	1.97	1.84	1.84	1.95	2.09	2.23	2.46	2.91	3.52	3.82	3.82
3.06	2.48	1.69	1.47	1.50	1.52	1.38	1.22	1.02	0.91	1.01	1.31	1.90	2.58	3.12	3.45	3.63	3.74	3.81	3.87	3.98	4.20	4.49	4.77	4.77	4.40	3.82	3.23	2.73	2.38	2.23	2.17	2.17	2.22	2.35	2.42	2.43	2.48	2.65	2.86	2.97	2.99	3.06	3.25	3.23	2.75	2.06	1.51	1.34	1.45	1.71	1.96	2.10	2.15	2.07	1.85	1.45	1.12	1.05	1.11	1.10	1.13	1.36	1.65	1.88	2.17	2.36	2.17	1.72	1.41	1.24	1.05	0.83	0.65	0.53	0.43	0.37	0.49	0.82	1.20	1.52	1.80	2.13	2.77	3.53	4.02	4.03	3.95	3.95	3.86	3.38	2.86	2.50	2.25	2.05	1.80	1.45	1.18	1.08	1.10	1.35	1.76	2.10	2.45	3.03	3.93	4.42	4.01	3.04	2.41	2.06	1.94	1.99	2.02	2.00	2.03	2.09	2.16	2.18	2.22	2.39	2.83	3.53	3.93	3.93
2.84	2.33	1.66	1.53	1.62	1.62	1.49	1.39	1.28	1.22	1.30	1.57	2.04	2.61	3.09	3.41	3.60	3.79	3.96	4.13	4.31	4.55	4.83	4.94	4.66	4.06	3.45	2.95	2.53	2.27	2.16	2.11	2.03	2.01	2.15	2.34	2.43	2.48	2.60	2.75	2.74	2.68	2.82	3.13	3.10	2.44	1.77	1.61	1.84	2.21	2.52	2.59	2.47	2.28	2.06	1.83	1.62	1.51	1.49	1.44	1.40	1.45	1.63	1.87	2.18	2.47	2.55	2.34	2.03	1.78	1.54	1.19	0.75	0.45	0.38	0.48	0.72	1.14	1.60	2.11	2.61	3.04	3.47	4.24	5.06	5.44	5.42	5.23	4.89	4.25	3.40	2.83	2.46	2.15	1.89	1.65	1.42	1.28	1.33	1.55	1.86	2.07	2.28	2.61	3.25	4.15	4.46	3.80	2.68	1.97	1.74	1.78	1.94	2.04	2.00	1.93	1.82	1.71	1.65	1.77	2.11	2.68	3.61	4.15	4.15
2.65	2.20	1.66	1.63	1.76	1.72	1.61	1.60	1.72	1.93	2.16	2.41	2.71	2.98	3.21	3.46	3.68	3.94	4.11	4.34	4.63	4.85	5.02	4.93	4.45	3.76	3.26	2.95	2.71	2.61	2.58	2.50	2.33	2.21	2.23	2.32	2.38	2.44	2.52	2.48	2.35	2.31	2.58	3.01	3.04	2.57	2.32	2.54	2.87	3.05	3.04	2.83	2.54	2.35	2.24	2.20	2.20	2.21	2.20	2.20	2.23	2.36	2.58	2.89	3.14	3.12	2.82	2.50	2.22	1.93	1.52	1.02	0.64	0.54	0.72	1.06	1.44	1.97	2.63	3.48	4.27	4.81	5.27	5.82	6.14	6.12	5.81	5.41	4.91	4.18	3.43	2.87	2.44	2.09	1.82	1.65	1.52	1.44	1.48	1.67	1.87	2.06	2.36	2.76	3.46	4.35	4.57	3.81	2.71	2.17	2.11	2.16	2.20	2.19	2.02	1.82	1.64	1.52	1.52	1.73	2.16	2.87	3.87	4.37	4.37
2.49	2.12	1.70	1.75	1.87	1.81	1.75	1.84	2.18	2.66	3.10	3.43	3.59	3.58	3.62	3.81	4.04	4.29	4.43	4.58	4.82	4.97	4.95	4.67	4.08	3.52	3.21	3.08	2.99	2.95	2.91	2.82	2.67	2.57	2.49	2.43	2.42	2.43	2.35	2.20	2.15	2.28	2.62	3.08	3.25	3.09	3.01	3.12	3.17	3.04	2.82	2.57	2.42	2.37	2.32	2.32	2.34	2.41	2.55	2.71	2.88	3.13	3.39	3.54	3.43	2.99	2.40	2.14	1.95	1.55	1.07	0.74	0.71	0.94	1.34	1.77	2.27	3.05	4.11	5.17	5.88	6.26	6.38	6.33	6.06	5.48	4.72	4.30	4.07	3.79	3.39	2.93	2.50	2.18	2.00	1.90	1.82	1.70	1.55	1.50	1.62	1.93	2.43	3.02	3.85	4.71	4.89	4.17	3.32	2.96	2.80	2.60	2.43	2.33	2.16	2.03	1.98	2.01	2.10	2.24	2.53	3.16	4.03	4.44	4.44
2.38	2.09	1.79	1.89	1.95	1.86	1.81	2.03	2.61	3.31	3.86	4.18	4.26	4.24	4.25	4.37	4.55	4.74	4.79	4.66	4.75	4.69	4.60	4.21	3.68	3.32	3.16	3.08	3.00	2.93	2.85	2.74	2.61	2.50	2.41	2.35	2.33	2.28	2.18	2.17	2.28	2.44	2.73	3.18	3.42	3.24	2.88	2.71	2.53	2.31	2.13	2.04	2.12	2.21	2.15	2.10	2.16	2.29	2.48	2.68	2.94	3.22	3.31	3.11	2.59	1.93	1.54	1.60	1.56	1.22	0.93	0.92	1.18	1.60	2.09	2.58	3.23	4.28	5.44	6.12	6.34	6.25	5.97	5.56	5.02	4.26	3.49	3.06	2.99	3.04	3.01	2.81	2.51	2.28	2.18	2.12	2.11	2.03	1.86	1.69	1.78	2.14	2.68	3.40	4.31	5.21	5.19	4.21	3.42	3.11	2.85	2.53	2.40	2.37	2.33	2.35	2.41	2.47	2.53	2.61	2.80	3.36	4.09	4.42	4.42
2.32	2.08	1.90	2.03	2.06	1.98	2.01	2.45	3.27	3.91	4.23	4.33	4.39	4.51	4.67	4.87	5.04	5.11	4.94	4.63	4.38	4.21	4.01	3.71	3.40	3.20	3.05	2.92	2.82	2.76	2.67	2.52	2.29	2.12	2.08	2.16	2.19	2.14	2.09	2.10	2.13	2.25	2.61	3.14	3.37	3.04	2.50	2.18	2.01	1.87	1.78	1.75	1.82	1.93	1.96	2.01	2.12	2.22	2.32	2.48	2.73	2.86	2.63	2.04	1.40	1.04	1.11	1.43	1.47	1.30	1.29	1.51	1.94	2.50	3.10	3.67	4.41	5.42	6.05	6.06	5.51	4.75	4.16	3.83	3.63	3.38	3.03	2.61	2.35	2.35	2.50	2.52	2.43	2.37	2.32	2.28	2.32	2.40	2.49	2.54	2.70	2.95	3.30	3.90	4.84	5.52	5.02	3.47	2.61	2.37	2.27	2.25	2.28	2.29	2.29	2.36	2.43	2.46	2.51	2.64	2.93	3.48	4.07	4.32	4.32
2.30	2.11	2.06	2.23	2.26	2.28	2.63	3.32	3.83	3.97	3.94	3.91	4.05	4.41	4.80	5.12	5.27	5.08	4.70	4.20	3.86	3.65	3.49	3.35	3.26	3.18	3.00	2.82	2.71	2.67	2.61	2.47	2.27	2.16	2.19	2.26	2.24	2.10	1.94	1.84	1.88	2.11	2.58	3.09	3.27	2.98	2.51	2.19	2.02	1.92	1.85	1.77	1.70	1.77	1.94	2.10	2.21	2.25	2.31	2.45	2.54	2.31	1.72	1.17	0.93	1.02	1.39	1.68	1.76	1.87	2.16	2.60	3.28	3.98	4.57	5.18	5.83	6.24	6.04	5.31	4.34	3.32	2.82	2.64	2.61	2.63	2.68	2.62	2.41	2.31	2.35	2.38	2.42	2.48	2.49	2.46	2.57	2.84	3.25	3.62	3.87	4.01	4.10	4.45	5.25	5.36	4.23	2.71	2.00	1.86	1.84	1.95	2.12	2.16	2.10	2.07	2.11	2.21	2.39	2.65	3.03	3.56	3.99	4.14	4.14
2.28	2.15	2.21	2.39	2.45	2.66	3.16	3.59	3.63	3.42	3.31	3.46	3.85	4.39	4.86	5.16	5.15	4.74	4.14	3.65	3.36	3.22	3.14	3.16	3.21	3.18	2.95	2.77	2.72	2.70	2.66	2.61	2.57	2.59	2.60	2.51	2.33	2.07	1.86	1.83	1.99	2.25	2.56	2.92	3.12	2.94	2.49	2.12	1.91	1.77	1.66	1.57	1.58	1.76	2.00	2.21	2.33	2.39	2.47	2.51	2.31	1.76	1.27	1.13	1.35	1.76	2.08	2.29	2.55	3.02	3.48	4.14	4.94	5.52	5.91	6.26	6.44	6.23	5.52	4.65	3.84	3.11	2.69	2.50	2.38	2.21	2.19	2.36	2.50	2.49	2.44	2.41	2.48	2.58	2.62	2.64	2.83	3.23	3.77	4.18	4.45	4.61	4.72	4.93	5.17	4.87	3.57	2.58	2.25	2.10	1.91	1.93	2.14	2.23	2.12	2.02	2.04	2.20	2.47	2.75	3.11	3.59	3.87	3.92	3.92
2.23	2.08	2.17	2.36	2.44	2.69	3.06	3.17	3.08	3.07	3.22	3.55	4.07	4.64	5.02	5.11	4.81	4.21	3.60	3.20	2.99	2.89	2.86	2.94	3.07	3.07	2.83	2.66	2.67	2.67	2.62	2.65	2.72	2.75	2.69	2.53	2.30	2.03	1.88	1.90	1.98	2.05	2.20	2.57	2.92	2.83	2.30	1.83	1.60	1.49	1.45	1.49	1.71	2.00	2.20	2.32	2.43	2.47	2.43	2.28	1.90	1.44	1.32	1.59	2.13	2.59	2.94	3.37	3.89	4.22	4.64	5.30	5.86	6.12	6.12	6.07	5.82	5.26	4.64	4.15	3.79	3.44	3.11	2.83	2.58	2.23	1.97	1.94	2.14	2.32	2.39	2.44	2.55	2.66	2.76	2.89	3.13	3.52	3.95	4.28	4.46	4.59	4.72	4.88	4.91	4.55	3.77	3.11	2.86	2.70	2.49	2.42	2.49	2.50	2.36	2.30	2.37	2.51	2.65	2.80	3.10	3.53	3.73	3.71	3.71
2.12	1.98	2.05	2.22	2.33	2.53	2.81	2.97	3.15	3.39	3.68	4.05	4.58	5.01	5.15	4.92	4.37	3.70	3.17	2.85	2.68	2.59	2.59	2.69	2.84	2.90	2.71	2.47	2.41	2.41	2.32	2.39	2.48	2.49	2.44	2.34	2.20	1.98	1.83	1.74	1.67	1.67	1.82	2.28	2.75	2.74	2.28	1.87	1.74	1.76	1.88	2.10	2.36	2.48	2.48	2.43	2.33	2.17	1.93	1.65	1.39	1.35	1.59	2.17	2.86	3.44	4.03	4.50	4.64	4.74	5.07	5.51	5.74	5.56	5.27	4.94	4.52	4.10	3.81	3.66	3.59	3.52	3.39	3.18	2.89	2.50	2.07	1.79	1.82	2.05	2.27	2.45	2.60	2.77	2.96	3.24	3.58	3.91	4.17	4.22	4.11	4.03	4.11	4.47	4.75	4.53	4.04	3.61	3.35	3.17	2.97	2.79	2.68	2.60	2.48	2.47	2.50	2.49	2.49	2.60	2.93	3.40	3.60	3.57	3.57
2.06	2.00	2.10	2.32	2.49	2.67	2.92	3.21	3.53	3.83	4.15	4.58	5.04	5.18	4.95	4.41	3.75	3.16	2.73	2.48	2.35	2.31	2.36	2.43	2.59	2.73	2.59	2.20	1.96	1.94	1.86	1.90	2.01	2.09	2.12	2.14	2.11	2.00	1.90	1.81	1.78	1.84	2.00	2.34	2.70	2.77	2.58	2.39	2.35	2.46	2.61	2.74	2.78	2.69	2.52	2.39	2.18	1.93	1.75	1.63	1.60	1.76	2.20	2.91	3.66	4.33	4.75	4.72	4.48	4.51	4.90	5.17	4.97	4.46	4.10	3.87	3.65	3.46	3.33	3.18	3.14	3.22	3.24	3.15	2.95	2.61	2.22	1.93	1.88	2.02	2.24	2.44	2.63	2.87	3.19	3.61	3.95	4.09	4.04	3.75	3.34	3.24	3.59	4.25	4.73	4.48	3.94	3.66	3.50	3.32	3.04	2.71	2.54	2.46	2.32	2.20	2.05	1.93	1.97	2.23	2.70	3.31	3.57	3.55	3.55
2.10	2.12	2.28	2.54	2.75	2.92	3.16	3.47	3.80	4.14	4.51	4.91	5.14	4.95	4.35	3.66	3.08	2.56	2.21	2.00	1.96	2.05	2.17	2.25	2.41	2.59	2.45	1.93	1.59	1.53	1.50	1.51	1.57	1.67	1.78	1.99	2.09	2.14	2.18	2.24	2.36	2.47	2.57	2.67	2.85	3.02	3.08	3.07	3.04	2.97	2.87	2.74	2.61	2.49	2.44	2.39	2.33	2.33	2.39	2.41	2.47	2.67	3.11	3.78	4.42	4.79	4.64	4.08	3.82	4.10	4.64	4.81	4.45	3.82	3.50	3.38	3.27	3.20	3.10	2.94	2.85	2.86	2.90	2.88	2.80	2.60	2.27	2.07	2.08	2.14	2.26	2.43	2.61	2.90	3.30	3.61	3.65	3.48	3.17	2.70	2.38	2.65	3.39	4.31	4.71	4.25	3.59	3.34	3.24	3.14	2.98	2.72	2.55	2.43	2.19	1.95	1.75	1.64	1.71	2.04	2.70	3.49	3.67	3.54	3.54
2.22	2.27	2.37	2.49	2.67	2.93	3.26	3.62	3.99	4.36	4.70	4.93	4.85	4.33	3.58	2.98	2.53	2.10	1.77	1.63	1.71	1.87	1.95	2.10	2.32	2.45	2.31	1.88	1.45	1.38	1.46	1.55	1.55	1.47	1.51	1.81	2.02	2.18	2.33	2.54	2.76	2.86	2.85	2.83	2.98	3.29	3.49	3.48	3.31	3.01	2.77	2.67	2.65	2.62	2.59	2.54	2.55	2.69	2.79	2.90	3.06	3.35	3.79	4.33	4.76	4.67	4.03	3.53	3.56	4.01	4.52	4.57	4.11	3.49	3.23	3.16	3.09	3.04	2.94	2.81	2.71	2.65	2.59	2.56	2.58	2.55	2.34	2.16	2.19	2.26	2.33	2.43	2.57	2.79	3.00	2.94	2.62	2.35	2.04	1.71	1.81	2.49	3.49	4.42	4.64	3.95	3.16	2.81	2.72	2.71	2.76	2.78	2.68	2.52	2.29	2.11	2.05	2.03	2.12	2.53	3.27	3.91	3.75	3.39	3.39
2.31	2.35	2.36	2.34	2.51	2.88	3.31	3.74	4.13	4.45	4.66	4.66	4.33	3.66	2.98	2.50	2.12	1.76	1.50	1.46	1.61	1.75	1.79	1.98	2.24	2.37	2.33	2.10	1.78	1.72	1.86	1.96	1.86	1.67	1.55	1.85	1.93	2.11	2.36	2.66	2.82	2.77	2.65	2.64	2.93	3.42	3.70	3.62	3.33	3.08	3.03	3.06	3.02	2.88	2.73	2.67	2.64	2.69	2.79	2.98	3.25	3.58	3.99	4.39	4.58	4.21	3.62	3.49	3.72	4.06	4.33	4.22	3.70	3.08	2.80	2.83	2.84	2.78	2.67	2.56	2.47	2.38	2.27	2.27	2.32	2.44	2.46	2.38	2.37	2.41	2.41	2.39	2.39	2.39	2.24	1.81	1.48	1.27	1.13	1.23	1.71	2.63	3.72	4.57	4.60	3.79	2.96	2.51	2.23	2.08	2.23	2.50	2.58	2.39	2.22	2.20	2.29	2.48	2.84	3.37	3.95	4.14	3.61	3.10	3.10
2.30	2.33	2.35	2.37	2.57	2.96	3.41	3.85	4.18	4.40	4.46	4.26	3.79	3.12	2.52	2.09	1.77	1.47	1.31	1.39	1.57	1.64	1.71	1.95	2.26	2.49	2.63	2.66	2.64	2.70	2.74	2.61	2.37	2.14	1.95	1.98	2.13	2.34	2.63	2.77	2.64	2.42	2.36	2.57	3.02	3.61	3.94	3.88	3.66	3.53	3.45	3.32	3.09	2.89	2.76	2.73	2.72	2.81	2.96	3.13	3.35	3.60	3.88	4.16	4.21	3.82	3.48	3.56	3.73	3.84	3.89	3.72	3.26	2.66	2.34	2.37	2.47	2.41	2.31	2.20	2.12	2.07	2.01	2.01	2.06	2.20	2.43	2.60	2.64	2.57	2.42	2.26	2.06	1.78	1.43	1.15	0.97	0.89	0.98	1.39	2.03	3.03	4.16	4.85	4.66	3.82	3.06	2.58	2.16	1.82	1.78	2.07	2.24	2.08	1.95	1.97	2.20	2.63	3.19	3.76	4.13	4.01	3.31	2.82	2.82
2.26	2.28	2.36	2.48	2.74	3.14	3.54	3.89	4.15	4.26	4.17	3.83	3.28	2.66	2.11	1.73	1.43	1.19	1.15	1.35	1.57	1.70	1.90	2.23	2.58	2.86	3.12	3.25	3.29	3.32	3.26	3.04	2.77	2.53	2.37	2.39	2.56	2.78	2.81	2.58	2.28	2.21	2.40	2.77	3.29	3.90	4.31	4.26	4.00	3.80	3.61	3.34	3.09	2.92	2.81	2.80	2.85	2.95	3.02	3.09	3.18	3.31	3.55	3.86	3.93	3.63	3.37	3.39	3.39	3.38	3.41	3.31	3.01	2.51	2.14	2.13	2.18	2.11	1.98	1.86	1.78	1.76	1.79	1.84	1.82	1.83	2.10	2.38	2.49	2.43	2.27	2.08	1.84	1.54	1.35	1.31	1.30	1.38	1.66	2.19	2.94	4.02	4.98	5.21	4.67	3.70	3.01	2.59	2.23	1.88	1.71	1.88	2.00	1.96	1.95	2.08	2.44	2.89	3.35	3.78	3.95	3.69	3.01	2.60	2.60
2.28	2.31	2.41	2.59	2.91	3.26	3.56	3.83	4.04	4.08	3.86	3.39	2.79	2.20	1.72	1.35	1.05	0.96	1.14	1.45	1.73	2.00	2.32	2.67	3.00	3.29	3.51	3.54	3.40	3.28	3.18	3.09	2.96	2.79	2.65	2.63	2.71	2.71	2.46	2.13	2.03	2.19	2.42	2.76	3.32	4.08	4.53	4.36	3.89	3.62	3.50	3.35	3.21	3.05	2.90	2.86	2.84	2.78	2.73	2.76	2.79	2.89	3.23	3.65	3.78	3.51	3.20	3.07	3.00	3.02	3.16	3.23	3.09	2.75	2.34	2.13	2.06	1.97	1.87	1.79	1.67	1.53	1.50	1.60	1.59	1.47	1.56	1.75	1.90	1.98	2.00	1.96	1.88	1.76	1.73	1.82	1.99	2.32	2.84	3.52	4.37	5.27	5.70	5.37	4.50	3.61	2.94	2.39	1.94	1.67	1.69	1.89	2.01	2.16	2.39	2.70	2.99	3.18	3.37	3.60	3.64	3.32	2.69	2.37	2.37
2.30	2.31	2.39	2.57	2.85	3.13	3.39	3.69	3.91	3.89	3.51	2.90	2.28	1.74	1.27	0.91	0.81	1.03	1.46	1.80	2.08	2.35	2.66	2.98	3.30	3.55	3.65	3.50	3.19	2.95	2.92	2.97	3.01	3.03	2.94	2.75	2.53	2.26	1.99	1.89	1.94	2.05	2.16	2.47	3.19	4.09	4.48	4.10	3.41	3.09	2.98	2.93	2.91	2.89	2.88	2.83	2.70	2.55	2.51	2.55	2.61	2.82	3.22	3.60	3.71	3.45	3.06	2.86	2.79	2.92	3.21	3.46	3.39	3.13	2.87	2.61	2.39	2.20	2.08	1.97	1.77	1.53	1.48	1.59	1.54	1.28	1.14	1.27	1.48	1.68	1.84	1.93	1.97	1.98	2.03	2.17	2.52	3.14	3.90	4.57	5.27	5.80	5.71	4.95	4.05	3.37	2.84	2.30	1.78	1.56	1.69	1.88	2.05	2.35	2.63	2.81	2.91	2.95	3.09	3.28	3.30	2.98	2.43	2.24	2.24
2.28	2.27	2.31	2.43	2.63	2.92	3.29	3.70	3.86	3.62	3.05	2.37	1.79	1.29	0.90	0.82	1.10	1.68	2.05	2.27	2.46	2.68	2.94	3.20	3.43	3.58	3.55	3.33	3.04	2.85	2.84	2.90	2.97	3.04	3.04	2.84	2.44	2.10	1.88	1.85	1.86	1.93	2.09	2.46	3.18	4.03	4.29	3.70	2.79	2.32	2.17	2.08	2.08	2.21	2.40	2.54	2.53	2.51	2.57	2.66	2.80	3.01	3.28	3.54	3.65	3.42	2.97	2.73	2.74	2.98	3.38	3.69	3.64	3.34	3.19	3.14	3.07	2.97	2.83	2.61	2.30	2.05	2.05	2.03	1.76	1.37	1.20	1.31	1.55	1.76	1.89	2.00	2.09	2.16	2.29	2.58	3.16	3.85	4.31	4.70	5.21	5.46	4.98	4.08	3.45	2.94	2.50	2.23	2.00	1.82	1.82	1.82	1.80	1.85	1.90	2.01	2.11	2.29	2.59	2.89	3.02	2.85	2.46	2.29	2.29
2.27	2.26	2.30	2.43	2.65	3.02	3.47	3.77	3.68	3.16	2.44	1.80	1.30	0.91	0.83	1.14	1.76	2.23	2.45	2.58	2.74	2.95	3.15	3.28	3.35	3.38	3.35	3.24	3.08	2.94	2.87	2.85	2.78	2.75	2.80	2.80	2.55	2.26	2.02	1.94	1.99	2.16	2.34	2.61	3.24	3.96	4.05	3.31	2.33	1.89	1.71	1.59	1.60	1.77	2.06	2.34	2.49	2.58	2.68	2.80	2.91	2.96	3.06	3.32	3.55	3.37	2.87	2.65	2.75	3.05	3.44	3.77	3.71	3.35	3.12	3.12	3.22	3.31	3.31	3.18	3.02	2.93	2.87	2.67	2.28	1.94	1.79	1.88	2.02	2.08	2.10	2.19	2.37	2.58	2.87	3.32	3.81	3.96	3.91	4.12	4.69	4.79	4.08	3.27	2.82	2.42	2.08	1.97	1.98	1.98	1.91	1.77	1.55	1.36	1.24	1.31	1.50	1.81	2.23	2.62	2.90	2.91	2.58	2.38	2.38
2.30	2.32	2.42	2.60	2.89	3.28	3.62	3.64	3.22	2.47	1.74	1.15	0.75	0.64	0.90	1.45	1.94	2.26	2.49	2.66	2.86	3.05	3.14	3.09	3.03	3.09	3.19	3.21	3.05	2.79	2.63	2.56	2.47	2.40	2.49	2.68	2.64	2.41	2.20	2.17	2.30	2.45	2.54	2.78	3.35	3.90	3.87	3.24	2.46	2.07	1.95	1.97	2.17	2.42	2.55	2.60	2.63	2.65	2.67	2.69	2.68	2.61	2.71	3.13	3.47	3.31	2.75	2.58	2.71	2.94	3.30	3.67	3.60	3.12	2.77	2.69	2.80	2.97	3.08	3.09	3.13	3.21	3.20	3.03	2.80	2.65	2.60	2.57	2.50	2.41	2.36	2.44	2.69	3.01	3.38	3.65	3.60	3.27	3.12	3.56	4.29	4.36	3.48	2.71	2.36	2.04	1.73	1.60	1.71	1.86	1.84	1.65	1.51	1.49	1.49	1.51	1.57	1.79	2.19	2.63	3.01	3.07	2.68	2.42	2.42
2.35	2.41	2.55	2.77	3.08	3.38	3.48	3.20	2.53	1.69	1.04	0.62	0.48	0.68	1.11	1.56	1.90	2.13	2.32	2.54	2.76	2.92	2.89	2.77	2.77	2.95	3.12	3.11	2.83	2.46	2.24	2.16	2.16	2.15	2.22	2.46	2.59	2.41	2.26	2.33	2.47	2.59	2.72	3.06	3.57	3.94	3.88	3.48	3.06	2.84	2.76	2.88	3.05	3.12	3.00	2.78	2.64	2.55	2.47	2.37	2.28	2.23	2.42	2.98	3.41	3.26	2.70	2.51	2.57	2.70	3.05	3.47	3.41	2.87	2.41	2.29	2.35	2.42	2.47	2.54	2.66	2.81	2.87	2.84	2.82	2.86	2.86	2.77	2.62	2.51	2.47	2.53	2.71	2.96	3.12	3.01	2.62	2.42	2.72	3.43	4.22	4.19	3.29	2.51	2.18	1.87	1.51	1.31	1.37	1.59	1.64	1.45	1.38	1.56	1.77	1.92	2.03	2.18	2.46	2.91	3.31	3.27	2.78	2.47	2.47
2.42	2.49	2.65	2.88	3.14	3.25	3.05	2.52	1.76	1.06	0.64	0.52	0.66	1.04	1.47	1.78	1.99	2.12	2.23	2.40	2.61	2.70	2.65	2.64	2.77	2.97	3.12	3.06	2.80	2.51	2.32	2.26	2.28	2.21	2.09	2.21	2.40	2.34	2.29	2.44	2.62	2.79	3.04	3.43	3.82	4.05	4.00	3.77	3.53	3.45	3.47	3.43	3.27	2.97	2.69	2.57	2.50	2.38	2.21	2.05	1.91	1.91	2.19	2.88	3.40	3.31	2.80	2.49	2.43	2.51	2.85	3.29	3.28	2.75	2.18	2.01	2.09	2.08	1.96	1.96	2.06	2.18	2.19	2.14	2.17	2.22	2.30	2.29	2.29	2.34	2.40	2.44	2.48	2.49	2.38	2.12	2.04	2.31	3.05	3.91	4.47	4.19	3.42	2.74	2.29	1.87	1.42	1.12	1.13	1.39	1.47	1.31	1.28	1.42	1.65	1.96	2.31	2.60	2.88	3.33	3.65	3.44	2.85	2.53	2.53
2.48	2.54	2.68	2.87	2.98	2.85	2.41	1.78	1.18	0.78	0.66	0.79	1.11	1.54	1.90	2.14	2.27	2.33	2.43	2.57	2.69	2.71	2.69	2.73	2.86	3.11	3.34	3.37	3.26	3.10	2.93	2.85	2.77	2.57	2.20	2.09	2.23	2.32	2.46	2.70	2.92	3.15	3.43	3.74	3.94	4.06	4.06	3.92	3.73	3.64	3.59	3.43	3.11	2.73	2.52	2.50	2.49	2.34	2.10	1.89	1.79	1.83	2.19	2.99	3.56	3.51	3.00	2.55	2.35	2.40	2.73	3.17	3.16	2.61	1.94	1.70	1.80	1.79	1.59	1.53	1.66	1.72	1.56	1.41	1.38	1.40	1.46	1.60	1.84	2.10	2.27	2.32	2.29	2.19	2.08	2.13	2.45	3.00	3.75	4.57	4.73	4.14	3.46	2.97	2.49	1.88	1.38	1.16	1.20	1.39	1.50	1.48	1.49	1.54	1.72	2.06	2.49	2.85	3.21	3.64	3.79	3.45	2.81	2.51	2.51
2.50	2.52	2.57	2.59	2.46	2.11	1.62	1.18	0.90	0.83	0.95	1.21	1.56	1.96	2.32	2.60	2.76	2.89	3.02	3.09	3.08	3.01	2.93	2.88	2.98	3.32	3.70	3.75	3.58	3.35	3.13	2.96	2.77	2.51	2.21	2.13	2.22	2.44	2.72	3.01	3.22	3.41	3.58	3.71	3.79	3.95	4.10	4.04	3.84	3.65	3.43	3.23	3.10	3.02	2.90	2.74	2.60	2.41	2.22	2.08	2.06	2.17	2.58	3.29	3.75	3.64	3.06	2.56	2.38	2.45	2.76	3.07	2.96	2.30	1.59	1.40	1.55	1.58	1.44	1.40	1.48	1.46	1.18	0.96	0.98	1.09	1.22	1.41	1.67	1.93	2.12	2.22	2.26	2.26	2.35	2.64	3.04	3.55	4.22	4.74	4.58	3.85	3.21	2.77	2.33	1.76	1.43	1.39	1.48	1.69	1.86	1.87	1.79	1.76	1.94	2.28	2.63	2.96	3.33	3.66	3.66	3.26	2.61	2.34	2.34
2.50	2.46	2.35	2.14	1.80	1.41	1.11	0.97	0.96	1.10	1.36	1.68	2.05	2.47	2.84	3.14	3.35	3.55	3.64	3.53	3.31	3.10	2.93	2.88	3.07	3.55	3.88	3.70	3.21	2.83	2.54	2.37	2.22	2.06	2.06	2.21	2.36	2.60	2.91	3.14	3.26	3.32	3.32	3.31	3.48	3.83	4.14	4.13	3.86	3.54	3.27	3.09	3.01	3.01	2.94	2.76	2.60	2.43	2.29	2.22	2.28	2.50	2.95	3.52	3.82	3.62	2.98	2.54	2.53	2.73	2.96	2.99	2.64	1.95	1.37	1.28	1.42	1.43	1.41	1.44	1.48	1.42	1.19	1.00	1.13	1.36	1.52	1.64	1.75	1.88	2.01	2.15	2.29	2.37	2.49	2.70	3.03	3.60	4.25	4.47	4.06	3.39	2.88	2.41	1.98	1.70	1.59	1.58	1.66	1.83	1.95	1.96	1.91	1.91	2.04	2.30	2.63	3.02	3.37	3.52	3.37	2.93	2.36	2.19	2.19
2.50	2.40	2.17	1.87	1.57	1.35	1.24	1.24	1.35	1.58	1.87	2.20	2.61	3.02	3.37	3.62	3.80	3.86	3.71	3.37	3.00	2.74	2.67	2.85	3.24	3.74	3.88	3.44	2.81	2.45	2.27	2.22	2.17	2.05	2.11	2.32	2.50	2.69	2.90	3.02	3.03	2.95	2.85	2.89	3.20	3.71	4.12	4.12	3.70	3.13	2.82	2.69	2.61	2.53	2.45	2.42	2.39	2.29	2.18	2.13	2.24	2.58	3.13	3.64	3.80	3.55	3.04	2.72	2.76	2.95	3.03	2.80	2.30	1.78	1.46	1.44	1.43	1.37	1.47	1.60	1.57	1.47	1.40	1.48	1.74	1.92	1.94	1.92	1.96	1.99	2.10	2.21	2.36	2.44	2.52	2.74	3.13	3.71	4.15	4.09	3.57	2.97	2.51	2.03	1.67	1.65	1.71	1.59	1.48	1.49	1.60	1.80	2.04	2.26	2.44	2.71	3.05	3.34	3.45	3.33	3.00	2.56	2.25	2.23	2.23
2.46	2.32	2.07	1.90	1.78	1.72	1.72	1.80	1.97	2.18	2.41	2.72	3.11	3.49	3.79	3.93	3.89	3.63	3.15	2.65	2.31	2.24	2.50	2.95	3.46	3.95	3.95	3.52	3.09	2.90	2.82	2.77	2.64	2.44	2.38	2.48	2.56	2.65	2.75	2.76	2.64	2.46	2.41	2.62	3.02	3.58	4.06	4.00	3.32	2.49	2.10	2.04	2.00	1.93	1.91	2.02	2.12	2.14	2.14	2.16	2.34	2.73	3.23	3.59	3.65	3.41	3.07	2.82	2.78	2.86	2.83	2.51	2.14	1.92	1.84	1.81	1.69	1.59	1.87	2.06	1.95	1.83	1.96	2.34	2.53	2.38	2.19	2.13	2.18	2.23	2.27	2.35	2.45	2.57	2.76	3.08	3.42	3.78	3.99	3.82	3.26	2.63	2.15	1.72	1.39	1.43	1.63	1.54	1.34	1.28	1.42	1.81	2.30	2.78	3.22	3.56	3.69	3.62	3.37	2.97	2.55	2.31	2.39	2.54	2.54
2.37	2.21	2.05	2.02	2.03	2.09	2.18	2.34	2.56	2.76	2.98	3.24	3.59	3.89	4.01	3.88	3.51	2.97	2.42	2.04	1.93	2.14	2.62	3.16	3.72	4.23	4.17	3.82	3.54	3.41	3.29	3.11	2.89	2.68	2.55	2.54	2.54	2.56	2.55	2.43	2.19	2.05	2.19	2.54	2.99	3.58	4.01	3.80	2.91	2.05	1.76	1.71	1.57	1.50	1.62	1.86	2.08	2.17	2.22	2.29	2.51	2.86	3.21	3.40	3.42	3.29	3.02	2.72	2.60	2.65	2.58	2.39	2.31	2.34	2.40	2.39	2.29	2.34	2.75	2.87	2.69	2.63	2.87	3.14	2.94	2.48	2.27	2.27	2.35	2.38	2.39	2.37	2.43	2.57	2.78	3.02	3.28	3.59	3.79	3.62	3.06	2.48	2.05	1.66	1.31	1.22	1.41	1.51	1.47	1.45	1.60	2.02	2.62	3.24	3.68	3.82	3.65	3.31	2.84	2.30	2.05	2.22	2.70	3.03	3.03
2.31	2.21	2.13	2.17	2.31	2.50	2.70	2.88	3.05	3.20	3.39	3.63	3.90	4.01	3.84	3.40	2.84	2.33	1.98	1.87	2.08	2.58	3.10	3.54	4.07	4.45	4.25	3.70	3.34	3.17	3.01	2.84	2.73	2.65	2.55	2.47	2.42	2.36	2.25	2.06	1.93	2.06	2.37	2.72	3.15	3.70	3.98	3.65	2.83	2.19	1.99	1.89	1.71	1.72	1.87	2.06	2.23	2.32	2.39	2.50	2.66	2.91	3.15	3.29	3.34	3.27	3.01	2.71	2.63	2.67	2.59	2.51	2.63	2.74	2.82	2.88	3.03	3.34	3.65	3.64	3.46	3.39	3.47	3.34	2.81	2.35	2.27	2.34	2.39	2.36	2.34	2.28	2.31	2.36	2.48	2.67	2.99	3.41	3.63	3.42	2.85	2.39	2.11	1.81	1.46	1.28	1.35	1.55	1.72	1.88	2.18	2.65	3.14	3.51	3.53	3.19	2.80	2.38	1.92	1.61	1.74	2.35	3.11	3.51	3.51
2.32	2.27	2.22	2.29	2.48	2.74	2.96	3.11	3.21	3.32	3.48	3.70	3.84	3.71	3.28	2.73	2.25	1.94	1.81	1.98	2.49	3.07	3.49	3.85	4.28	4.42	3.96	3.22	2.78	2.60	2.49	2.45	2.45	2.47	2.47	2.41	2.27	2.11	1.98	1.95	2.11	2.45	2.70	2.92	3.28	3.76	3.93	3.54	2.88	2.55	2.46	2.35	2.28	2.28	2.26	2.23	2.27	2.38	2.54	2.69	2.83	3.04	3.24	3.36	3.39	3.32	3.13	2.99	2.98	2.91	2.77	2.73	2.80	2.85	2.90	3.09	3.44	3.79	3.88	3.72	3.52	3.42	3.28	2.89	2.38	2.19	2.28	2.38	2.38	2.30	2.28	2.22	2.23	2.22	2.29	2.53	2.98	3.44	3.56	3.25	2.71	2.30	1.99	1.69	1.55	1.49	1.52	1.72	2.02	2.40	2.85	3.26	3.47	3.37	2.89	2.23	1.82	1.51	1.33	1.44	1.95	2.74	3.51	3.86	3.86
2.31	2.28	2.24	2.29	2.43	2.61	2.76	2.86	2.93	3.06	3.26	3.45	3.45	3.15	2.66	2.19	1.85	1.73	1.88	2.28	2.83	3.29	3.62	3.89	4.17	4.11	3.46	2.74	2.32	2.13	2.09	2.09	2.07	2.10	2.24	2.32	2.24	2.13	2.15	2.33	2.58	2.73	2.80	2.93	3.26	3.69	3.80	3.40	2.88	2.64	2.55	2.49	2.50	2.47	2.27	2.16	2.22	2.38	2.58	2.76	2.96	3.23	3.41	3.48	3.46	3.39	3.32	3.27	3.18	2.96	2.82	2.80	2.80	2.80	2.90	3.14	3.43	3.57	3.43	3.25	3.14	3.04	2.79	2.41	2.19	2.25	2.41	2.47	2.39	2.26	2.21	2.25	2.28	2.27	2.37	2.69	3.18	3.53	3.51	3.16	2.64	2.18	1.76	1.42	1.44	1.54	1.63	1.84	2.15	2.56	2.99	3.25	3.16	2.75	2.13	1.62	1.35	1.23	1.34	1.81	2.55	3.26	3.77	3.92	3.92
2.30	2.29	2.30	2.33	2.36	2.39	2.41	2.43	2.52	2.72	2.97	3.09	2.94	2.57	2.12	1.80	1.73	1.94	2.39	2.83	3.17	3.44	3.64	3.79	3.87	3.64	2.93	2.25	1.89	1.78	1.78	1.74	1.63	1.62	1.81	2.07	2.23	2.35	2.51	2.65	2.70	2.67	2.66	2.79	3.13	3.53	3.63	3.26	2.77	2.47	2.33	2.26	2.25	2.20	2.09	2.11	2.23	2.42	2.62	2.84	3.12	3.41	3.53	3.52	3.45	3.39	3.34	3.21	2.97	2.71	2.65	2.68	2.72	2.77	2.88	3.06	3.18	3.06	2.87	2.84	2.87	2.85	2.73	2.63	2.65	2.73	2.75	2.64	2.45	2.29	2.25	2.31	2.39	2.46	2.64	3.01	3.39	3.55	3.42	3.02	2.45	1.97	1.59	1.33	1.36	1.48	1.61	1.80	2.05	2.38	2.72	2.74	2.36	1.96	1.57	1.31	1.19	1.27	1.66	2.42	3.18	3.74	3.83	3.73	3.73
2.40	2.46	2.52	2.49	2.40	2.29	2.19	2.20	2.37	2.63	2.81	2.75	2.44	2.04	1.72	1.67	2.01	2.57	3.00	3.27	3.46	3.59	3.66	3.70	3.65	3.33	2.69	2.05	1.76	1.74	1.75	1.67	1.58	1.54	1.65	1.94	2.24	2.43	2.47	2.42	2.35	2.33	2.39	2.59	2.96	3.37	3.48	3.12	2.56	2.22	2.09	1.99	1.88	1.81	1.86	2.06	2.24	2.46	2.67	2.92	3.22	3.46	3.50	3.42	3.34	3.29	3.21	3.03	2.79	2.58	2.53	2.58	2.67	2.71	2.75	2.92	2.94	2.73	2.57	2.58	2.64	2.72	2.84	2.99	3.12	3.12	2.98	2.76	2.52	2.36	2.31	2.36	2.44	2.58	2.86	3.22	3.46	3.45	3.20	2.71	2.08	1.65	1.44	1.34	1.36	1.44	1.55	1.72	1.97	2.24	2.31	1.99	1.54	1.29	1.11	1.05	1.14	1.48	2.20	3.06	3.68	4.01	3.72	3.36	3.36
2.58	2.63	2.64	2.55	2.41	2.27	2.19	2.27	2.47	2.61	2.54	2.26	1.88	1.58	1.51	1.75	2.25	2.78	3.12	3.36	3.51	3.57	3.60	3.67	3.63	3.28	2.74	2.33	2.19	2.25	2.27	2.21	2.16	2.11	2.12	2.24	2.39	2.37	2.25	2.14	2.07	2.07	2.24	2.53	2.93	3.33	3.41	2.98	2.40	2.09	1.96	1.79	1.60	1.48	1.57	1.90	2.25	2.53	2.73	2.97	3.23	3.35	3.31	3.21	3.19	3.20	3.14	3.01	2.84	2.67	2.56	2.57	2.64	2.67	2.73	2.84	2.76	2.55	2.41	2.35	2.31	2.34	2.46	2.64	2.74	2.71	2.66	2.57	2.45	2.39	2.40	2.43	2.49	2.66	2.97	3.28	3.37	3.22	2.90	2.40	1.89	1.58	1.42	1.35	1.37	1.42	1.50	1.61	1.78	1.85	1.67	1.29	1.04	0.93	0.90	1.03	1.40	2.08	2.97	3.64	4.01	4.00	3.43	2.94	2.94
2.62	2.53	2.41	2.33	2.26	2.20	2.21	2.32	2.40	2.29	1.99	1.70	1.51	1.46	1.64	2.04	2.44	2.71	2.89	3.09	3.21	3.28	3.45	3.70	3.69	3.31	2.99	2.97	3.06	3.13	3.13	3.09	3.01	2.87	2.74	2.63	2.50	2.34	2.23	2.13	2.06	2.11	2.38	2.76	3.13	3.42	3.38	2.91	2.40	2.10	1.86	1.59	1.46	1.54	1.72	2.05	2.42	2.66	2.84	3.05	3.19	3.15	3.06	3.07	3.17	3.22	3.17	3.03	2.90	2.74	2.63	2.63	2.66	2.67	2.64	2.61	2.54	2.43	2.32	2.18	2.02	1.94	1.98	2.01	1.98	1.99	2.08	2.19	2.30	2.41	2.52	2.63	2.77	2.97	3.21	3.30	3.20	2.97	2.70	2.39	2.08	1.82	1.57	1.43	1.41	1.45	1.48	1.48	1.48	1.42	1.28	1.16	1.12	1.15	1.27	1.58	2.16	2.94	3.62	3.98	4.09	3.79	3.05	2.63	2.63
2.49	2.29	2.10	2.07	2.05	2.03	2.03	2.03	1.98	1.83	1.67	1.60	1.65	1.85	2.28	2.72	2.88	2.87	2.82	2.85	2.93	3.08	3.46	3.81	3.69	3.32	3.25	3.42	3.54	3.57	3.52	3.41	3.26	3.08	2.90	2.71	2.53	2.39	2.28	2.15	2.14	2.35	2.71	3.06	3.33	3.49	3.34	2.86	2.38	2.01	1.65	1.51	1.71	2.09	2.38	2.53	2.65	2.77	2.93	3.05	3.03	2.92	2.93	3.10	3.24	3.27	3.17	3.04	2.93	2.83	2.74	2.70	2.64	2.51	2.33	2.25	2.33	2.36	2.25	2.07	1.90	1.91	2.01	2.00	1.91	1.84	1.88	2.03	2.23	2.43	2.61	2.80	3.01	3.19	3.25	3.14	2.93	2.74	2.61	2.47	2.23	1.96	1.71	1.57	1.54	1.57	1.58	1.57	1.55	1.54	1.59	1.64	1.70	1.84	2.09	2.49	3.04	3.58	3.89	3.98	3.87	3.42	2.74	2.47	2.47
2.38	2.21	2.02	1.98	1.96	1.92	1.86	1.81	1.80	1.82	1.94	2.16	2.43	2.83	3.30	3.58	3.56	3.32	3.11	3.12	3.25	3.50	3.89	4.00	3.66	3.29	3.28	3.38	3.35	3.30	3.23	3.11	3.00	2.90	2.80	2.70	2.61	2.51	2.33	2.19	2.29	2.65	2.98	3.16	3.31	3.43	3.24	2.76	2.30	1.91	1.71	1.91	2.44	2.86	2.93	2.78	2.70	2.79	2.90	2.91	2.84	2.82	2.94	3.10	3.20	3.16	3.05	2.97	2.92	2.88	2.80	2.69	2.53	2.33	2.15	2.11	2.26	2.34	2.23	2.10	2.12	2.31	2.45	2.39	2.24	2.12	2.06	2.11	2.24	2.40	2.56	2.71	2.84	2.89	2.83	2.70	2.59	2.55	2.57	2.45	2.12	1.84	1.73	1.70	1.69	1.72	1.84	2.02	2.15	2.23	2.26	2.24	2.25	2.39	2.67	3.03	3.39	3.63	3.70	3.67	3.49	3.09	2.63	2.45	2.45
2.37	2.26	2.10	2.06	2.07	2.09	2.12	2.19	2.30	2.50	2.81	3.17	3.56	3.91	4.15	4.14	3.94	3.76	3.79	3.92	4.09	4.27	4.37	4.12	3.59	3.21	3.17	3.15	2.93	2.73	2.61	2.55	2.51	2.50	2.53	2.60	2.66	2.61	2.44	2.34	2.49	2.69	2.79	2.87	3.10	3.33	3.20	2.80	2.44	2.25	2.32	2.71	3.15	3.29	3.06	2.78	2.74	2.83	2.87	2.84	2.81	2.83	2.88	2.95	2.99	2.91	2.81	2.82	2.83	2.77	2.69	2.58	2.44	2.29	2.18	2.18	2.31	2.34	2.27	2.26	2.41	2.60	2.67	2.59	2.45	2.32	2.21	2.19	2.24	2.34	2.44	2.51	2.51	2.47	2.39	2.32	2.34	2.45	2.52	2.32	1.89	1.65	1.67	1.75	1.79	1.90	2.22	2.55	2.72	2.74	2.62	2.42	2.28	2.32	2.50	2.71	2.91	3.08	3.23	3.35	3.32	3.06	2.66	2.46	2.46
2.42	2.35	2.27	2.26	2.31	2.41	2.58	2.82	3.12	3.47	3.81	4.13	4.34	4.41	4.34	4.03	3.68	3.72	4.01	4.28	4.47	4.56	4.43	4.00	3.40	3.10	3.12	3.08	2.78	2.46	2.26	2.16	2.14	2.17	2.25	2.39	2.51	2.54	2.44	2.36	2.32	2.29	2.28	2.52	3.06	3.45	3.36	3.02	2.77	2.78	3.01	3.36	3.57	3.50	3.24	3.08	3.08	3.05	2.98	2.91	2.85	2.78	2.73	2.77	2.80	2.68	2.61	2.70	2.74	2.66	2.55	2.44	2.32	2.23	2.18	2.22	2.30	2.29	2.30	2.40	2.50	2.57	2.56	2.47	2.37	2.29	2.22	2.20	2.21	2.25	2.31	2.35	2.35	2.31	2.27	2.23	2.28	2.41	2.43	2.14	1.73	1.58	1.63	1.75	1.90	2.19	2.56	2.73	2.68	2.51	2.26	1.97	1.79	1.82	1.97	2.16	2.40	2.78	3.17	3.42	3.43	3.15	2.68	2.45	2.45
2.50	2.46	2.43	2.47	2.55	2.68	2.91	3.29	3.75	4.15	4.41	4.49	4.41	4.21	3.89	3.44	3.19	3.37	3.70	3.99	4.23	4.33	4.17	3.69	3.16	3.00	3.14	3.10	2.79	2.52	2.39	2.34	2.35	2.39	2.38	2.34	2.34	2.37	2.31	2.18	2.03	2.01	2.24	2.74	3.43	3.77	3.58	3.21	3.03	3.10	3.35	3.64	3.78	3.71	3.59	3.54	3.47	3.31	3.11	2.96	2.81	2.68	2.63	2.69	2.66	2.50	2.51	2.69	2.75	2.67	2.49	2.29	2.18	2.13	2.13	2.19	2.23	2.24	2.34	2.50	2.59	2.62	2.57	2.44	2.33	2.27	2.23	2.21	2.20	2.17	2.14	2.15	2.17	2.19	2.20	2.20	2.25	2.38	2.36	2.09	1.77	1.66	1.72	1.89	2.17	2.50	2.62	2.45	2.12	1.78	1.49	1.36	1.42	1.65	1.93	2.29	2.77	3.31	3.71	3.80	3.60	3.20	2.68	2.43	2.43
2.55	2.49	2.50	2.63	2.79	2.99	3.33	3.79	4.20	4.42	4.41	4.24	3.97	3.67	3.34	3.03	2.95	3.14	3.39	3.65	3.94	4.07	3.92	3.45	3.01	2.96	3.09	2.94	2.62	2.50	2.55	2.64	2.69	2.67	2.58	2.45	2.35	2.32	2.24	2.15	2.16	2.35	2.72	3.32	3.93	4.08	3.73	3.28	3.08	3.12	3.36	3.65	3.81	3.77	3.70	3.65	3.54	3.35	3.13	2.91	2.73	2.62	2.59	2.56	2.45	2.38	2.56	2.80	2.86	2.73	2.43	2.17	2.07	2.05	2.05	2.10	2.12	2.18	2.34	2.58	2.73	2.71	2.60	2.48	2.39	2.31	2.25	2.22	2.20	2.14	2.05	2.00	1.99	1.98	2.01	2.05	2.19	2.38	2.37	2.14	1.88	1.79	1.87	2.09	2.38	2.49	2.29	1.92	1.53	1.25	1.18	1.32	1.62	2.04	2.55	3.18	3.77	4.20	4.30	4.08	3.67	3.18	2.64	2.40	2.40
2.54	2.48	2.54	2.75	3.00	3.30	3.74	4.13	4.31	4.24	4.00	3.72	3.47	3.25	3.03	2.84	2.82	3.02	3.26	3.50	3.78	3.97	3.77	3.26	2.92	2.99	3.04	2.80	2.53	2.43	2.44	2.46	2.47	2.44	2.42	2.41	2.40	2.36	2.30	2.33	2.49	2.73	3.13	3.78	4.27	4.21	3.71	3.17	2.95	3.00	3.23	3.52	3.63	3.50	3.36	3.28	3.18	3.06	2.93	2.81	2.67	2.57	2.47	2.36	2.31	2.42	2.72	2.94	2.94	2.69	2.31	2.06	1.96	1.93	1.94	1.98	2.00	2.06	2.29	2.67	2.83	2.67	2.47	2.36	2.27	2.15	2.09	2.12	2.15	2.13	2.07	2.03	1.99	1.92	1.89	1.99	2.23	2.43	2.41	2.20	2.00	1.94	1.97	2.11	2.23	2.08	1.78	1.48	1.31	1.30	1.50	1.82	2.22	2.77	3.48	4.14	4.58	4.71	4.50	4.08	3.59	3.07	2.54	2.36	2.36
2.56	2.54	2.63	2.84	3.09	3.41	3.80	4.03	3.95	3.67	3.39	3.14	2.96	2.81	2.67	2.61	2.76	3.03	3.23	3.41	3.72	3.94	3.61	3.03	2.93	3.10	3.08	2.86	2.65	2.49	2.34	2.20	2.12	2.08	2.10	2.18	2.28	2.33	2.35	2.46	2.65	2.89	3.34	4.00	4.32	4.06	3.47	2.96	2.78	2.86	3.10	3.34	3.33	3.07	2.79	2.65	2.57	2.55	2.62	2.65	2.62	2.52	2.38	2.31	2.38	2.58	2.87	3.01	2.89	2.53	2.19	1.96	1.83	1.82	1.86	1.90	1.91	1.97	2.26	2.76	2.88	2.51	2.23	2.11	1.96	1.82	1.85	1.99	2.08	2.09	2.09	2.12	2.10	2.04	2.04	2.17	2.37	2.50	2.47	2.29	2.13	2.07	2.04	2.02	1.91	1.68	1.53	1.52	1.66	1.90	2.20	2.55	2.98	3.60	4.25	4.68	4.86	4.75	4.37	3.85	3.35	2.83	2.39	2.30	2.30
2.65	2.67	2.76	2.90	3.09	3.33	3.57	3.56	3.26	2.92	2.69	2.52	2.38	2.29	2.33	2.55	2.93	3.26	3.41	3.53	3.77	3.81	3.33	2.85	2.95	3.11	3.00	2.80	2.65	2.54	2.46	2.35	2.24	2.10	1.96	1.92	2.09	2.28	2.40	2.54	2.75	3.02	3.46	3.99	4.09	3.65	3.08	2.70	2.60	2.73	3.02	3.22	3.13	2.79	2.43	2.17	2.05	2.11	2.29	2.43	2.49	2.50	2.47	2.47	2.55	2.73	2.94	2.96	2.72	2.38	2.12	1.92	1.79	1.78	1.83	1.85	1.84	1.92	2.26	2.80	2.83	2.32	2.01	1.87	1.74	1.71	1.85	2.00	2.05	2.05	2.10	2.19	2.23	2.24	2.28	2.38	2.50	2.60	2.57	2.40	2.21	2.13	2.06	1.96	1.82	1.73	1.81	2.05	2.36	2.65	2.95	3.27	3.64	4.09	4.50	4.71	4.70	4.43	3.92	3.40	2.99	2.57	2.28	2.25	2.25
2.77	2.80	2.87	2.95	3.04	3.13	3.15	2.96	2.60	2.32	2.22	2.16	2.12	2.21	2.55	3.04	3.47	3.69	3.74	3.73	3.70	3.46	2.93	2.64	2.77	2.80	2.63	2.49	2.47	2.53	2.60	2.61	2.54	2.34	2.08	2.01	2.21	2.44	2.59	2.75	2.95	3.16	3.47	3.81	3.73	3.26	2.77	2.49	2.46	2.69	3.07	3.24	3.07	2.74	2.39	2.10	2.00	2.04	2.14	2.24	2.35	2.47	2.55	2.60	2.69	2.81	2.89	2.79	2.55	2.28	2.06	1.90	1.81	1.78	1.79	1.80	1.82	1.94	2.29	2.77	2.75	2.28	1.98	1.84	1.86	2.01	2.13	2.12	2.06	2.05	2.13	2.24	2.29	2.31	2.34	2.44	2.61	2.72	2.67	2.45	2.20	2.07	2.02	1.97	1.93	1.98	2.20	2.52	2.81	3.10	3.37	3.58	3.78	4.07	4.34	4.44	4.27	3.78	3.20	2.83	2.61	2.35	2.23	2.25	2.25
2.90	2.91	2.91	2.92	2.91	2.86	2.74	2.54	2.35	2.31	2.38	2.43	2.56	2.91	3.43	3.90	4.11	4.03	3.82	3.61	3.32	3.00	2.69	2.54	2.54	2.43	2.26	2.21	2.30	2.43	2.53	2.58	2.59	2.57	2.53	2.55	2.62	2.71	2.77	2.87	2.99	3.11	3.33	3.54	3.42	3.04	2.65	2.43	2.48	2.81	3.18	3.27	3.05	2.76	2.55	2.45	2.40	2.37	2.33	2.32	2.36	2.41	2.47	2.55	2.65	2.73	2.71	2.59	2.42	2.18	1.98	1.83	1.74	1.74	1.78	1.82	1.87	2.02	2.35	2.76	2.82	2.51	2.26	2.22	2.38	2.50	2.37	2.19	2.08	2.08	2.14	2.21	2.25	2.26	2.31	2.49	2.69	2.75	2.65	2.40	2.10	1.98	1.99	2.01	2.05	2.14	2.31	2.54	2.76	2.94	3.06	3.10	3.25	3.64	3.98	4.06	3.78	3.22	2.77	2.56	2.39	2.20	2.18	2.24	2.24
2.99	2.93	2.85	2.81	2.75	2.65	2.55	2.48	2.49	2.65	2.88	3.15	3.49	3.91	4.27	4.38	4.16	3.73	3.38	3.07	2.79	2.71	2.71	2.65	2.53	2.35	2.15	2.09	2.20	2.30	2.32	2.36	2.43	2.55	2.71	2.81	2.77	2.69	2.65	2.69	2.78	2.95	3.22	3.39	3.26	2.95	2.65	2.48	2.60	2.94	3.19	3.16	2.93	2.74	2.71	2.76	2.80	2.80	2.72	2.60	2.50	2.40	2.35	2.37	2.45	2.49	2.42	2.36	2.31	2.15	1.96	1.79	1.69	1.71	1.80	1.88	1.98	2.16	2.47	2.88	3.07	2.90	2.72	2.77	2.88	2.76	2.41	2.19	2.09	2.06	2.10	2.17	2.20	2.23	2.33	2.54	2.69	2.67	2.54	2.29	2.02	1.93	1.95	2.00	2.07	2.16	2.26	2.33	2.33	2.27	2.16	2.21	2.57	3.17	3.66	3.79	3.51	3.09	2.80	2.60	2.38	2.17	2.14	2.21	2.21
3.01	2.91	2.77	2.71	2.65	2.60	2.58	2.60	2.70	2.93	3.32	3.75	4.14	4.38	4.41	4.10	3.49	2.98	2.73	2.49	2.41	2.63	2.82	2.85	2.71	2.46	2.22	2.10	2.20	2.26	2.20	2.19	2.22	2.29	2.41	2.51	2.52	2.48	2.45	2.51	2.66	2.93	3.25	3.35	3.10	2.79	2.63	2.55	2.67	2.91	3.05	2.97	2.77	2.69	2.76	2.80	2.83	2.85	2.81	2.72	2.57	2.38	2.23	2.18	2.17	2.14	2.07	2.20	2.34	2.25	2.05	1.88	1.79	1.79	1.87	1.97	2.09	2.28	2.60	3.05	3.25	3.10	2.93	2.95	2.89	2.61	2.29	2.15	2.07	2.03	2.07	2.13	2.18	2.24	2.35	2.52	2.63	2.59	2.44	2.22	1.98	1.89	1.89	1.94	1.97	1.98	2.01	1.96	1.80	1.63	1.65	1.92	2.48	3.13	3.61	3.73	3.46	3.05	2.74	2.50	2.27	2.06	2.03	2.11	2.11
3.00	2.90	2.76	2.69	2.64	2.63	2.66	2.73	2.90	3.25	3.74	4.13	4.30	4.24	3.93	3.37	2.82	2.54	2.33	2.17	2.27	2.57	2.82	2.90	2.74	2.44	2.24	2.22	2.35	2.37	2.25	2.17	2.14	2.08	2.05	2.11	2.24	2.34	2.42	2.52	2.70	3.01	3.26	3.19	2.81	2.55	2.58	2.65	2.72	2.84	2.90	2.82	2.73	2.75	2.80	2.76	2.68	2.61	2.55	2.51	2.44	2.28	2.13	2.02	1.93	1.89	2.01	2.34	2.54	2.40	2.16	2.01	1.92	1.89	1.92	2.01	2.09	2.26	2.62	3.02	3.19	3.00	2.77	2.67	2.48	2.25	2.12	2.09	2.07	2.06	2.07	2.11	2.18	2.27	2.39	2.55	2.64	2.56	2.40	2.20	1.96	1.86	1.89	1.97	1.98	1.94	1.88	1.79	1.68	1.68	1.94	2.35	2.87	3.40	3.78	3.82	3.48	2.95	2.56	2.33	2.14	1.95	1.95	2.03	2.03
2.99	2.93	2.84	2.74	2.67	2.68	2.76	2.90	3.17	3.63	4.07	4.22	4.09	3.81	3.38	2.89	2.55	2.34	2.13	2.06	2.23	2.48	2.77	2.89	2.64	2.30	2.23	2.32	2.45	2.42	2.32	2.24	2.15	2.04	1.91	1.87	2.04	2.26	2.43	2.57	2.78	3.04	3.15	2.88	2.43	2.30	2.54	2.71	2.74	2.77	2.83	2.84	2.83	2.86	2.81	2.68	2.50	2.36	2.26	2.19	2.14	2.09	2.05	2.00	1.99	2.10	2.36	2.66	2.71	2.46	2.17	2.01	1.93	1.88	1.88	1.92	1.96	2.15	2.53	2.92	3.06	2.88	2.61	2.40	2.17	2.01	1.97	2.01	2.06	2.10	2.13	2.17	2.24	2.33	2.45	2.60	2.62	2.48	2.30	2.11	1.91	1.89	1.98	2.11	2.21	2.26	2.29	2.28	2.33	2.53	2.82	3.06	3.32	3.69	3.98	3.93	3.54	3.03	2.68	2.42	2.21	2.08	2.09	2.14	2.14
3.06	3.04	2.93	2.79	2.71	2.77	2.91	3.11	3.46	3.93	4.16	4.06	3.79	3.49	3.12	2.74	2.43	2.19	2.08	2.17	2.39	2.63	2.87	2.91	2.63	2.31	2.26	2.34	2.39	2.35	2.28	2.26	2.22	2.12	1.97	1.88	2.00	2.22	2.39	2.56	2.78	3.00	2.94	2.49	2.04	2.06	2.45	2.68	2.69	2.69	2.80	2.89	2.86	2.78	2.64	2.46	2.29	2.19	2.09	1.97	1.93	1.97	2.04	2.14	2.28	2.48	2.68	2.80	2.71	2.40	2.10	1.93	1.84	1.81	1.81	1.85	1.92	2.16	2.53	2.83	2.96	2.83	2.55	2.31	2.11	1.99	1.95	1.96	2.00	2.09	2.20	2.28	2.31	2.36	2.43	2.50	2.47	2.34	2.19	2.04	1.95	2.00	2.12	2.25	2.39	2.59	2.80	3.02	3.29	3.52	3.59	3.57	3.65	3.89	4.07	3.97	3.58	3.10	2.75	2.48	2.30	2.23	2.23	2.24	2.24
3.17	3.11	2.95	2.78	2.74	2.84	3.03	3.29	3.69	3.99	4.00	3.77	3.50	3.26	2.92	2.54	2.29	2.23	2.33	2.54	2.72	2.84	2.93	2.90	2.65	2.37	2.27	2.27	2.27	2.24	2.20	2.20	2.19	2.15	2.10	2.09	2.15	2.26	2.36	2.51	2.74	2.84	2.54	1.97	1.67	1.84	2.32	2.65	2.70	2.63	2.70	2.77	2.68	2.50	2.33	2.18	2.08	2.04	2.00	1.92	1.91	1.97	2.07	2.19	2.35	2.51	2.66	2.73	2.64	2.37	2.10	1.89	1.77	1.73	1.76	1.84	1.98	2.20	2.41	2.63	2.81	2.78	2.50	2.21	2.06	2.03	1.99	1.95	1.98	2.10	2.22	2.30	2.33	2.34	2.35	2.35	2.30	2.20	2.11	2.10	2.12	2.20	2.30	2.40	2.51	2.70	2.98	3.33	3.62	3.71	3.64	3.58	3.70	3.93	4.05	3.95	3.56	3.01	2.61	2.41	2.31	2.26	2.26	2.26	2.26
3.18	3.07	2.88	2.75	2.76	2.89	3.08	3.32	3.61	3.75	3.61	3.34	3.12	2.89	2.47	2.20	2.23	2.42	2.60	2.69	2.67	2.69	2.82	2.90	2.75	2.45	2.24	2.19	2.18	2.13	2.09	2.09	2.08	2.08	2.16	2.25	2.29	2.31	2.34	2.48	2.60	2.41	1.84	1.38	1.38	1.72	2.25	2.70	2.77	2.62	2.57	2.55	2.42	2.26	2.12	2.03	1.97	1.91	1.87	1.88	1.93	2.00	2.06	2.13	2.26	2.44	2.60	2.67	2.59	2.33	2.06	1.85	1.70	1.63	1.65	1.77	1.88	1.97	2.09	2.37	2.72	2.79	2.49	2.15	1.99	1.93	1.88	1.89	2.00	2.14	2.24	2.29	2.31	2.30	2.28	2.24	2.17	2.08	2.09	2.23	2.34	2.42	2.51	2.59	2.67	2.81	2.99	3.15	3.14	2.97	2.96	3.21	3.55	3.81	3.95	3.87	3.47	2.92	2.57	2.39	2.32	2.30	2.28	2.28	2.28
3.16	3.07	2.91	2.80	2.81	2.91	3.04	3.17	3.28	3.29	3.11	2.90	2.72	2.39	2.03	2.04	2.27	2.39	2.37	2.24	2.17	2.36	2.73	2.96	2.81	2.46	2.27	2.20	2.15	2.07	2.02	2.04	2.09	2.12	2.19	2.23	2.22	2.22	2.25	2.33	2.25	1.80	1.33	1.22	1.41	1.77	2.30	2.81	2.88	2.71	2.60	2.51	2.36	2.21	2.12	2.08	2.02	1.87	1.77	1.83	1.94	2.03	2.11	2.26	2.48	2.62	2.66	2.63	2.47	2.18	1.92	1.73	1.57	1.47	1.51	1.62	1.67	1.71	1.88	2.28	2.72	2.81	2.50	2.15	1.99	1.88	1.79	1.87	2.04	2.21	2.30	2.32	2.31	2.30	2.28	2.23	2.17	2.16	2.27	2.44	2.56	2.62	2.67	2.70	2.72	2.74	2.74	2.65	2.46	2.36	2.58	3.04	3.41	3.60	3.71	3.65	3.23	2.70	2.41	2.29	2.28	2.31	2.31	2.30	2.30
3.25	3.20	3.04	2.86	2.80	2.84	2.91	2.94	2.95	2.91	2.79	2.66	2.42	2.03	1.88	2.02	2.10	1.97	1.77	1.69	1.86	2.32	2.85	3.05	2.80	2.43	2.29	2.26	2.20	2.09	2.03	2.09	2.18	2.18	2.12	2.04	1.99	2.01	2.07	2.08	1.89	1.60	1.53	1.68	1.85	2.08	2.50	2.94	3.03	2.89	2.72	2.57	2.45	2.34	2.27	2.26	2.15	1.97	1.88	1.91	1.96	2.04	2.20	2.45	2.62	2.62	2.53	2.46	2.30	2.03	1.78	1.55	1.41	1.36	1.41	1.48	1.52	1.62	1.87	2.27	2.67	2.78	2.57	2.33	2.16	2.01	1.93	2.02	2.20	2.32	2.36	2.34	2.33	2.34	2.36	2.37	2.40	2.48	2.59	2.71	2.76	2.74	2.69	2.61	2.51	2.41	2.32	2.23	2.21	2.39	2.74	3.04	3.19	3.29	3.44	3.43	3.04	2.57	2.31	2.21	2.21	2.27	2.30	2.29	2.29
3.39	3.26	2.97	2.74	2.67	2.71	2.76	2.76	2.74	2.73	2.69	2.53	2.17	1.84	1.79	1.82	1.73	1.56	1.49	1.65	2.06	2.60	3.07	3.13	2.73	2.35	2.25	2.24	2.20	2.12	2.10	2.17	2.22	2.14	1.99	1.92	1.92	1.98	2.04	2.02	1.95	1.97	2.12	2.24	2.34	2.53	2.83	3.10	3.16	2.98	2.72	2.54	2.47	2.42	2.39	2.37	2.28	2.14	2.04	1.96	1.94	2.01	2.19	2.37	2.36	2.24	2.22	2.28	2.23	2.00	1.69	1.41	1.29	1.29	1.35	1.36	1.38	1.53	1.81	2.17	2.61	2.89	2.90	2.68	2.32	2.04	2.05	2.26	2.40	2.43	2.38	2.31	2.31	2.37	2.45	2.54	2.63	2.71	2.79	2.86	2.84	2.70	2.54	2.38	2.22	2.11	2.08	2.10	2.18	2.36	2.51	2.59	2.72	3.03	3.39	3.43	3.09	2.69	2.42	2.27	2.22	2.25	2.26	2.25	2.25
3.35	3.08	2.64	2.47	2.50	2.62	2.68	2.64	2.60	2.60	2.54	2.31	1.96	1.74	1.70	1.69	1.64	1.64	1.81	2.19	2.60	2.97	3.23	3.05	2.51	2.19	2.12	2.06	2.03	2.07	2.15	2.20	2.22	2.15	2.06	2.07	2.14	2.18	2.21	2.22	2.27	2.33	2.38	2.43	2.58	2.82	3.08	3.23	3.21	3.01	2.78	2.63	2.55	2.48	2.41	2.39	2.36	2.24	2.05	1.91	1.88	1.95	2.08	2.12	2.04	2.01	2.16	2.32	2.25	1.92	1.53	1.30	1.23	1.24	1.31	1.34	1.38	1.54	1.80	2.17	2.75	3.27	3.33	2.87	2.24	1.99	2.24	2.52	2.55	2.46	2.35	2.27	2.29	2.37	2.48	2.59	2.65	2.69	2.78	2.84	2.75	2.53	2.33	2.16	2.02	1.94	1.91	1.91	1.96	2.06	2.14	2.27	2.63	3.23	3.61	3.54	3.14	2.67	2.38	2.27	2.24	2.24	2.23	2.23	2.23
3.10	2.78	2.38	2.34	2.49	2.63	2.65	2.57	2.50	2.46	2.37	2.16	1.93	1.86	1.93	2.00	2.08	2.27	2.58	2.89	3.05	3.13	3.10	2.78	2.34	2.13	1.99	1.85	1.85	1.98	2.12	2.19	2.23	2.25	2.29	2.37	2.40	2.37	2.33	2.32	2.34	2.33	2.38	2.54	2.79	3.05	3.26	3.32	3.25	3.10	2.95	2.84	2.74	2.61	2.47	2.41	2.37	2.21	1.98	1.84	1.84	1.92	1.99	1.98	1.97	2.11	2.36	2.43	2.13	1.59	1.23	1.14	1.17	1.21	1.29	1.39	1.54	1.75	2.00	2.41	3.11	3.67	3.50	2.75	2.14	2.19	2.66	2.82	2.65	2.45	2.33	2.30	2.33	2.41	2.51	2.57	2.58	2.61	2.73	2.77	2.64	2.39	2.18	2.02	1.89	1.80	1.71	1.69	1.82	2.04	2.27	2.64	3.26	3.82	3.92	3.58	3.00	2.47	2.23	2.22	2.27	2.29	2.28	2.26	2.26
2.87	2.70	2.49	2.56	2.73	2.76	2.66	2.53	2.43	2.40	2.37	2.25	2.16	2.23	2.40	2.57	2.74	2.94	3.08	3.10	2.99	2.87	2.74	2.53	2.32	2.16	1.97	1.83	1.87	1.99	2.09	2.15	2.23	2.35	2.43	2.44	2.39	2.34	2.29	2.26	2.24	2.28	2.45	2.72	3.01	3.24	3.37	3.34	3.22	3.11	2.98	2.85	2.75	2.62	2.50	2.44	2.36	2.17	1.96	1.84	1.87	1.96	2.01	2.02	2.12	2.34	2.47	2.25	1.69	1.16	0.98	1.01	1.11	1.22	1.31	1.43	1.63	1.92	2.32	2.85	3.49	3.83	3.44	2.67	2.44	2.81	3.19	3.09	2.76	2.52	2.41	2.41	2.45	2.51	2.57	2.59	2.58	2.64	2.74	2.74	2.55	2.26	2.05	1.94	1.82	1.72	1.68	1.82	2.12	2.47	2.88	3.43	4.03	4.26	4.01	3.43	2.80	2.40	2.25	2.28	2.34	2.36	2.32	2.28	2.28
2.85	2.85	2.88	3.00	3.05	2.90	2.66	2.51	2.45	2.45	2.47	2.44	2.44	2.58	2.75	2.86	2.94	2.98	2.90	2.69	2.44	2.30	2.35	2.42	2.39	2.22	2.06	2.02	2.10	2.18	2.19	2.22	2.34	2.47	2.47	2.32	2.25	2.25	2.27	2.28	2.31	2.43	2.67	2.93	3.14	3.27	3.27	3.14	2.98	2.88	2.82	2.78	2.74	2.62	2.50	2.44	2.38	2.24	2.05	1.94	1.96	2.04	2.08	2.14	2.28	2.43	2.32	1.85	1.29	1.02	0.99	1.06	1.16	1.29	1.43	1.55	1.73	2.03	2.50	3.13	3.72	3.91	3.57	3.16	3.23	3.48	3.45	3.11	2.76	2.55	2.49	2.50	2.53	2.57	2.60	2.60	2.61	2.69	2.76	2.69	2.42	2.06	1.90	1.88	1.85	1.80	1.84	2.08	2.54	3.11	3.69	4.21	4.49	4.32	3.78	3.12	2.65	2.46	2.40	2.39	2.39	2.36	2.29	2.26	2.26
2.95	3.01	3.13	3.21	3.13	2.89	2.64	2.53	2.52	2.53	2.56	2.56	2.60	2.73	2.78	2.74	2.68	2.59	2.39	2.08	1.83	1.85	2.17	2.51	2.54	2.34	2.22	2.24	2.33	2.40	2.44	2.50	2.63	2.68	2.57	2.39	2.32	2.34	2.37	2.44	2.55	2.74	2.93	3.06	3.11	3.07	2.91	2.70	2.59	2.66	2.81	2.91	2.84	2.65	2.48	2.44	2.41	2.31	2.17	2.08	2.05	2.10	2.16	2.24	2.34	2.32	2.01	1.49	1.18	1.12	1.17	1.24	1.31	1.40	1.53	1.71	1.94	2.27	2.76	3.39	3.98	4.16	3.95	3.71	3.61	3.48	3.15	2.75	2.49	2.43	2.46	2.50	2.55	2.59	2.60	2.61	2.65	2.71	2.73	2.58	2.23	1.92	1.86	1.91	1.98	2.06	2.24	2.53	3.09	3.77	4.28	4.54	4.45	3.96	3.31	2.80	2.56	2.50	2.44	2.38	2.35	2.31	2.26	2.25	2.25
3.07	3.11	3.18	3.17	3.04	2.84	2.67	2.60	2.62	2.63	2.61	2.57	2.59	2.64	2.59	2.50	2.43	2.24	1.92	1.66	1.62	1.84	2.34	2.75	2.76	2.53	2.38	2.37	2.42	2.52	2.66	2.83	2.94	2.90	2.75	2.61	2.56	2.54	2.52	2.58	2.73	2.89	2.95	2.95	2.91	2.73	2.47	2.29	2.34	2.65	3.00	3.12	2.91	2.63	2.47	2.46	2.43	2.34	2.22	2.12	2.09	2.13	2.21	2.27	2.30	2.15	1.73	1.36	1.23	1.26	1.32	1.36	1.42	1.50	1.61	1.83	2.15	2.62	3.25	3.89	4.38	4.41	4.03	3.57	3.23	2.93	2.56	2.29	2.22	2.29	2.40	2.50	2.58	2.61	2.62	2.63	2.65	2.67	2.65	2.46	2.13	1.96	1.97	2.07	2.19	2.39	2.74	3.23	3.82	4.30	4.51	4.43	4.03	3.41	2.86	2.53	2.44	2.40	2.29	2.24	2.26	2.26	2.26	2.26	2.26
3.22	3.25	3.28	3.23	3.08	2.86	2.73	2.73	2.77	2.71	2.59	2.51	2.49	2.49	2.48	2.44	2.31	2.02	1.75	1.73	1.91	2.22	2.67	2.99	2.95	2.71	2.51	2.46	2.49	2.59	2.75	2.92	3.01	2.97	2.88	2.85	2.84	2.81	2.72	2.69	2.76	2.78	2.78	2.79	2.68	2.41	2.18	2.14	2.38	2.88	3.28	3.28	2.95	2.64	2.51	2.48	2.43	2.30	2.16	2.08	2.07	2.12	2.17	2.20	2.19	2.01	1.67	1.46	1.41	1.44	1.45	1.43	1.45	1.57	1.77	2.07	2.44	2.98	3.74	4.38	4.60	4.31	3.63	3.05	2.71	2.43	2.15	2.03	2.13	2.30	2.42	2.52	2.59	2.61	2.60	2.59	2.60	2.60	2.54	2.33	2.08	2.02	2.10	2.22	2.38	2.66	3.17	3.76	4.21	4.44	4.40	4.06	3.51	2.96	2.57	2.38	2.32	2.22	2.08	2.05	2.09	2.15	2.22	2.25	2.25
3.48	3.48	3.45	3.31	3.09	2.84	2.74	2.79	2.81	2.67	2.50	2.44	2.45	2.48	2.50	2.41	2.17	1.92	1.89	2.09	2.31	2.54	2.89	3.13	3.08	2.85	2.64	2.55	2.58	2.67	2.79	2.88	2.92	2.94	3.01	3.11	3.14	3.07	2.97	2.85	2.76	2.68	2.67	2.64	2.43	2.19	2.12	2.26	2.67	3.26	3.57	3.39	2.97	2.66	2.51	2.45	2.38	2.24	2.10	2.07	2.09	2.11	2.12	2.12	2.10	1.93	1.74	1.68	1.67	1.65	1.59	1.52	1.52	1.68	2.00	2.41	2.91	3.55	4.29	4.67	4.47	3.88	3.16	2.66	2.37	2.13	1.98	2.04	2.26	2.46	2.52	2.54	2.57	2.57	2.55	2.54	2.54	2.53	2.43	2.19	1.99	1.99	2.10	2.26	2.50	2.92	3.43	3.87	4.14	4.20	4.00	3.54	3.04	2.64	2.41	2.29	2.24	2.16	2.05	1.99	1.99	2.07	2.17	2.21	2.21
3.75	3.64	3.39	3.14	2.93	2.75	2.68	2.69	2.63	2.47	2.37	2.41	2.53	2.58	2.51	2.29	2.03	1.97	2.12	2.30	2.40	2.57	2.94	3.20	3.15	2.92	2.67	2.54	2.56	2.68	2.81	2.88	2.91	2.99	3.13	3.19	3.15	3.08	3.03	2.94	2.75	2.57	2.46	2.32	2.13	2.07	2.21	2.48	2.99	3.60	3.76	3.40	2.89	2.59	2.45	2.39	2.31	2.18	2.08	2.10	2.16	2.17	2.14	2.13	2.09	1.95	1.84	1.84	1.86	1.82	1.73	1.67	1.73	1.97	2.37	2.84	3.54	4.38	4.91	4.77	4.16	3.47	2.91	2.51	2.23	2.07	2.06	2.24	2.51	2.65	2.63	2.60	2.61	2.62	2.61	2.58	2.56	2.52	2.37	2.13	1.96	1.96	2.06	2.21	2.45	2.85	3.29	3.67	3.90	3.85	3.53	3.09	2.72	2.45	2.27	2.19	2.21	2.23	2.17	2.12	2.16	2.20	2.23	2.24	2.24
3.86	3.57	3.05	2.73	2.59	2.51	2.48	2.49	2.46	2.38	2.41	2.58	2.76	2.76	2.53	2.22	2.04	2.06	2.15	2.21	2.32	2.58	3.02	3.26	3.16	2.89	2.60	2.46	2.49	2.64	2.77	2.87	2.93	3.00	3.04	2.94	2.77	2.68	2.66	2.62	2.46	2.26	2.10	1.98	1.96	2.09	2.32	2.65	3.26	3.83	3.79	3.22	2.68	2.44	2.36	2.31	2.24	2.13	2.07	2.16	2.25	2.26	2.22	2.18	2.11	1.98	1.91	1.92	1.95	1.96	1.96	2.01	2.19	2.54	2.99	3.56	4.29	5.00	5.14	4.60	3.81	3.27	2.88	2.54	2.36	2.34	2.40	2.56	2.74	2.78	2.73	2.76	2.80	2.79	2.74	2.70	2.65	2.55	2.35	2.14	2.02	2.04	2.11	2.17	2.30	2.64	3.16	3.63	3.80	3.61	3.22	2.86	2.59	2.37	2.18	2.11	2.19	2.24	2.21	2.23	2.32	2.35	2.30	2.28	2.28
3.72	3.33	2.63	2.27	2.15	2.11	2.19	2.34	2.45	2.52	2.69	2.92	3.06	2.91	2.55	2.24	2.10	2.05	2.00	2.07	2.31	2.68	3.13	3.29	3.12	2.83	2.56	2.42	2.44	2.56	2.67	2.73	2.74	2.75	2.69	2.49	2.26	2.10	2.00	1.94	1.91	1.86	1.84	1.88	2.02	2.23	2.46	2.85	3.55	3.94	3.65	2.94	2.46	2.29	2.24	2.22	2.18	2.12	2.15	2.28	2.36	2.34	2.29	2.23	2.14	2.03	2.00	2.05	2.10	2.16	2.30	2.55	2.93	3.42	3.92	4.44	4.95	5.24	4.97	4.21	3.60	3.29	3.08	2.87	2.82	2.88	2.87	2.91	2.96	2.90	2.90	3.02	3.04	2.94	2.84	2.77	2.69	2.54	2.35	2.19	2.15	2.20	2.25	2.32	2.56	3.05	3.55	3.86	3.80	3.44	3.03	2.72	2.50	2.31	2.14	2.08	2.16	2.21	2.21	2.27	2.33	2.33	2.28	2.26	2.26
3.37	2.95	2.31	2.08	2.02	2.01	2.14	2.36	2.53	2.67	2.87	3.04	3.01	2.72	2.38	2.18	2.09	2.03	2.01	2.17	2.47	2.83	3.19	3.27	3.07	2.81	2.59	2.47	2.47	2.53	2.58	2.55	2.48	2.42	2.32	2.11	1.85	1.65	1.49	1.45	1.53	1.67	1.83	2.04	2.31	2.54	2.79	3.27	3.84	3.91	3.38	2.70	2.33	2.20	2.15	2.16	2.20	2.27	2.42	2.55	2.52	2.40	2.32	2.28	2.23	2.16	2.17	2.24	2.32	2.45	2.72	3.16	3.71	4.21	4.59	4.91	5.12	5.08	4.62	3.98	3.66	3.54	3.42	3.36	3.46	3.49	3.41	3.35	3.33	3.25	3.28	3.33	3.20	3.01	2.88	2.79	2.68	2.54	2.41	2.32	2.32	2.38	2.48	2.70	3.15	3.63	3.94	3.95	3.65	3.20	2.83	2.61	2.45	2.27	2.10	2.03	2.14	2.25	2.29	2.33	2.31	2.27	2.23	2.22	2.22
2.91	2.63	2.27	2.24	2.29	2.34	2.43	2.52	2.60	2.69	2.79	2.82	2.63	2.30	2.09	2.04	2.06	2.09	2.18	2.42	2.69	2.98	3.24	3.24	3.03	2.81	2.66	2.60	2.61	2.62	2.59	2.49	2.37	2.26	2.08	1.81	1.53	1.35	1.25	1.30	1.48	1.74	2.04	2.40	2.71	2.95	3.24	3.63	3.90	3.70	3.08	2.53	2.27	2.15	2.13	2.18	2.31	2.49	2.67	2.69	2.52	2.33	2.27	2.30	2.34	2.33	2.32	2.38	2.51	2.75	3.15	3.67	4.14	4.44	4.62	4.75	4.79	4.67	4.30	3.90	3.74	3.63	3.54	3.63	3.83	3.91	3.90	3.89	3.87	3.84	3.80	3.62	3.29	3.05	2.91	2.80	2.69	2.57	2.48	2.45	2.50	2.58	2.75	3.10	3.56	3.86	3.91	3.69	3.29	2.91	2.69	2.57	2.42	2.19	1.97	1.92	2.11	2.29	2.35	2.35	2.33	2.29	2.24	2.23	2.23
2.67	2.65	2.69	2.80	2.87	2.85	2.76	2.71	2.72	2.72	2.68	2.56	2.28	2.02	1.92	1.98	2.08	2.17	2.35	2.61	2.86	3.11	3.27	3.18	2.97	2.81	2.72	2.69	2.69	2.69	2.61	2.47	2.31	2.12	1.87	1.57	1.32	1.21	1.22	1.36	1.63	2.00	2.42	2.78	3.01	3.18	3.38	3.62	3.69	3.37	2.78	2.36	2.14	2.05	2.10	2.22	2.38	2.52	2.53	2.36	2.16	2.10	2.17	2.30	2.36	2.36	2.38	2.45	2.61	2.91	3.36	3.77	4.01	4.09	4.13	4.19	4.29	4.30	4.08	3.74	3.52	3.40	3.38	3.54	3.73	3.81	3.91	4.03	4.08	4.06	3.96	3.71	3.36	3.07	2.92	2.83	2.71	2.59	2.53	2.55	2.63	2.75	2.98	3.34	3.63	3.71	3.57	3.25	2.88	2.66	2.59	2.50	2.29	1.98	1.77	1.82	2.14	2.34	2.39	2.39	2.38	2.36	2.29	2.26	2.26
2.80	2.98	3.28	3.42	3.39	3.22	3.01	2.96	2.93	2.82	2.62	2.36	2.08	1.91	1.92	2.03	2.16	2.30	2.54	2.81	3.03	3.19	3.20	3.06	2.90	2.81	2.75	2.69	2.65	2.62	2.54	2.39	2.19	1.96	1.71	1.46	1.32	1.31	1.39	1.60	1.98	2.46	2.85	3.06	3.13	3.16	3.25	3.39	3.39	3.04	2.53	2.14	1.90	1.88	2.03	2.20	2.32	2.32	2.14	1.92	1.84	1.92	2.10	2.27	2.31	2.29	2.33	2.45	2.62	2.88	3.22	3.43	3.47	3.49	3.53	3.66	3.94	4.13	3.97	3.55	3.27	3.18	3.18	3.25	3.33	3.35	3.45	3.59	3.67	3.64	3.51	3.34	3.20	3.04	2.93	2.82	2.69	2.58	2.54	2.56	2.63	2.76	3.00	3.26	3.37	3.30	3.09	2.77	2.51	2.48	2.50	2.37	2.07	1.75	1.66	1.88	2.26	2.44	2.49	2.51	2.49	2.44	2.33	2.27	2.27
3.04	3.24	3.51	3.56	3.44	3.28	3.22	3.20	3.09	2.85	2.56	2.29	2.06	1.97	2.04	2.18	2.33	2.52	2.77	2.96	3.07	3.09	2.99	2.88	2.83	2.83	2.78	2.65	2.54	2.47	2.40	2.27	2.10	1.89	1.68	1.51	1.46	1.51	1.68	2.03	2.54	2.96	3.14	3.12	3.05	2.99	3.05	3.19	3.14	2.78	2.29	1.91	1.73	1.80	2.00	2.15	2.15	2.00	1.77	1.64	1.69	1.86	2.06	2.20	2.20	2.19	2.28	2.46	2.63	2.82	2.98	3.02	3.05	3.15	3.27	3.53	3.94	4.15	3.95	3.51	3.27	3.17	3.07	3.02	3.07	3.12	3.13	3.13	3.10	3.01	2.87	2.83	2.87	2.90	2.86	2.74	2.62	2.54	2.51	2.51	2.56	2.67	2.82	2.94	2.94	2.79	2.57	2.33	2.31	2.44	2.43	2.20	1.85	1.65	1.72	2.03	2.39	2.56	2.66	2.69	2.63	2.52	2.33	2.25	2.25
3.21	3.33	3.47	3.40	3.19	3.06	3.10	3.08	2.94	2.71	2.50	2.32	2.18	2.14	2.22	2.35	2.53	2.72	2.88	2.93	2.89	2.80	2.74	2.76	2.84	2.88	2.78	2.57	2.45	2.40	2.32	2.19	2.05	1.89	1.74	1.66	1.67	1.81	2.13	2.62	3.03	3.15	3.05	2.89	2.80	2.79	2.90	3.03	2.93	2.54	2.07	1.79	1.74	1.87	2.04	2.09	1.95	1.70	1.51	1.50	1.66	1.87	2.03	2.11	2.12	2.17	2.31	2.49	2.64	2.76	2.84	2.88	2.96	3.08	3.30	3.73	4.16	4.28	4.02	3.61	3.35	3.18	3.00	2.98	3.11	3.18	3.10	2.97	2.80	2.62	2.50	2.53	2.63	2.70	2.69	2.61	2.53	2.50	2.49	2.49	2.54	2.62	2.66	2.63	2.55	2.38	2.24	2.24	2.39	2.49	2.34	2.00	1.66	1.59	1.78	2.15	2.49	2.71	2.86	2.87	2.75	2.54	2.29	2.21	2.21
3.33	3.40	3.44	3.27	2.97	2.77	2.72	2.65	2.55	2.47	2.39	2.33	2.28	2.28	2.34	2.46	2.62	2.73	2.75	2.68	2.59	2.53	2.60	2.78	2.95	2.97	2.81	2.61	2.52	2.47	2.35	2.18	2.01	1.88	1.82	1.85	1.96	2.22	2.63	2.99	3.09	2.93	2.72	2.61	2.61	2.68	2.82	2.90	2.73	2.32	1.93	1.76	1.77	1.90	2.06	2.05	1.89	1.70	1.58	1.64	1.82	1.97	2.05	2.12	2.18	2.26	2.38	2.51	2.58	2.63	2.73	2.86	2.93	3.03	3.41	4.05	4.49	4.44	4.07	3.63	3.32	3.10	2.96	3.05	3.23	3.23	3.05	2.83	2.62	2.44	2.37	2.41	2.49	2.50	2.47	2.44	2.44	2.48	2.51	2.50	2.52	2.55	2.51	2.43	2.36	2.30	2.32	2.45	2.55	2.48	2.20	1.82	1.57	1.59	1.85	2.24	2.62	2.92	3.07	2.99	2.76	2.48	2.26	2.20	2.20
3.38	3.42	3.36	3.05	2.69	2.47	2.38	2.29	2.22	2.21	2.23	2.27	2.29	2.30	2.36	2.45	2.51	2.49	2.40	2.33	2.30	2.35	2.58	2.92	3.12	3.09	2.91	2.77	2.70	2.57	2.38	2.16	1.96	1.87	1.89	1.99	2.18	2.49	2.78	2.91	2.83	2.65	2.53	2.52	2.58	2.64	2.73	2.77	2.55	2.17	1.87	1.72	1.72	1.90	2.09	2.09	1.98	1.88	1.85	1.95	2.08	2.12	2.15	2.22	2.29	2.35	2.44	2.52	2.55	2.60	2.76	2.88	2.90	3.10	3.79	4.56	4.80	4.48	3.91	3.42	3.13	2.99	2.97	3.10	3.21	3.08	2.83	2.61	2.46	2.36	2.33	2.33	2.34	2.30	2.25	2.26	2.32	2.41	2.45	2.44	2.42	2.39	2.33	2.32	2.39	2.49	2.61	2.67	2.60	2.37	2.02	1.70	1.59	1.68	1.97	2.40	2.84	3.15	3.18	2.93	2.58	2.32	2.19	2.18	2.18
3.35	3.29	3.04	2.57	2.20	2.09	2.13	2.16	2.12	2.10	2.16	2.23	2.26	2.29	2.34	2.36	2.31	2.19	2.14	2.19	2.27	2.42	2.77	3.15	3.29	3.16	2.97	2.86	2.72	2.50	2.30	2.10	1.94	1.90	1.97	2.09	2.26	2.49	2.67	2.75	2.69	2.55	2.50	2.55	2.57	2.56	2.59	2.59	2.38	2.07	1.78	1.63	1.73	2.00	2.20	2.18	2.07	2.01	2.07	2.19	2.26	2.24	2.28	2.36	2.41	2.46	2.53	2.61	2.70	2.84	2.95	2.95	3.04	3.55	4.45	4.99	4.85	4.22	3.57	3.14	2.94	2.93	2.98	3.05	3.03	2.81	2.58	2.47	2.44	2.41	2.35	2.26	2.21	2.17	2.16	2.18	2.25	2.31	2.35	2.36	2.36	2.34	2.31	2.39	2.56	2.71	2.78	2.73	2.54	2.25	1.92	1.69	1.64	1.77	2.12	2.66	3.12	3.29	3.13	2.76	2.41	2.20	2.15	2.17	2.17
3.17	3.00	2.66	2.27	1.99	2.00	2.13	2.22	2.22	2.23	2.28	2.29	2.27	2.29	2.33	2.32	2.25	2.23	2.33	2.47	2.56	2.73	3.06	3.32	3.33	3.12	2.91	2.73	2.46	2.21	2.10	1.97	1.90	1.95	2.06	2.17	2.32	2.52	2.71	2.81	2.72	2.56	2.52	2.53	2.47	2.41	2.43	2.42	2.22	1.87	1.59	1.59	1.87	2.19	2.31	2.23	2.10	2.07	2.15	2.24	2.29	2.33	2.42	2.53	2.58	2.60	2.64	2.75	2.90	3.00	3.00	3.01	3.37	4.16	4.92	5.02	4.47	3.73	3.23	2.95	2.83	2.85	2.90	2.92	2.81	2.56	2.46	2.51	2.53	2.51	2.38	2.25	2.15	2.12	2.15	2.20	2.24	2.30	2.34	2.39	2.42	2.45	2.51	2.62	2.75	2.82	2.79	2.66	2.43	2.13	1.84	1.65	1.63	1.85	2.36	2.96	3.31	3.32	3.05	2.67	2.36	2.20	2.20	2.22	2.22
2.86	2.73	2.54	2.42	2.33	2.33	2.37	2.36	2.34	2.38	2.39	2.32	2.27	2.30	2.36	2.37	2.41	2.52	2.65	2.66	2.64	2.79	3.10	3.31	3.25	3.00	2.73	2.44	2.09	1.92	1.88	1.82	1.85	2.00	2.16	2.28	2.45	2.69	2.90	2.93	2.76	2.56	2.47	2.42	2.31	2.25	2.30	2.29	2.04	1.64	1.47	1.69	2.10	2.33	2.34	2.23	2.14	2.11	2.13	2.18	2.27	2.41	2.57	2.67	2.68	2.67	2.71	2.80	2.89	2.89	2.91	3.20	3.86	4.63	4.97	4.66	3.89	3.27	2.94	2.76	2.65	2.61	2.63	2.68	2.55	2.42	2.50	2.62	2.60	2.49	2.33	2.19	2.11	2.12	2.16	2.22	2.26	2.32	2.38	2.43	2.50	2.60	2.71	2.80	2.85	2.83	2.74	2.54	2.25	1.93	1.67	1.56	1.67	2.07	2.68	3.18	3.37	3.27	2.95	2.56	2.27	2.19	2.23	2.25	2.25
2.64	2.64	2.63	2.65	2.66	2.63	2.57	2.52	2.49	2.48	2.40	2.28	2.26	2.35	2.44	2.52	2.62	2.68	2.61	2.46	2.44	2.69	3.08	3.31	3.19	2.84	2.47	2.14	1.89	1.83	1.83	1.81	1.89	2.09	2.28	2.44	2.63	2.86	2.98	2.90	2.68	2.49	2.39	2.28	2.17	2.16	2.25	2.19	1.86	1.55	1.58	1.94	2.27	2.37	2.32	2.23	2.17	2.12	2.08	2.10	2.24	2.43	2.59	2.63	2.62	2.63	2.69	2.76	2.79	2.82	3.04	3.60	4.28	4.66	4.60	4.12	3.46	2.99	2.74	2.57	2.43	2.35	2.35	2.34	2.30	2.37	2.60	2.69	2.55	2.35	2.18	2.08	2.08	2.12	2.14	2.18	2.24	2.29	2.32	2.35	2.46	2.62	2.74	2.79	2.81	2.77	2.60	2.29	1.94	1.67	1.54	1.60	1.90	2.44	3.00	3.31	3.38	3.20	2.83	2.41	2.18	2.19	2.26	2.27	2.27
2.60	2.65	2.72	2.77	2.79	2.77	2.78	2.80	2.77	2.61	2.41	2.28	2.29	2.41	2.54	2.64	2.70	2.64	2.50	2.46	2.63	2.97	3.32	3.42	3.14	2.68	2.29	2.08	2.01	2.03	2.03	1.99	2.04	2.19	2.37	2.55	2.70	2.83	2.86	2.72	2.53	2.40	2.32	2.21	2.14	2.17	2.22	2.08	1.76	1.61	1.79	2.17	2.38	2.39	2.32	2.25	2.18	2.08	2.02	2.08	2.25	2.43	2.52	2.52	2.51	2.54	2.63	2.72	2.80	2.97	3.33	3.84	4.16	4.20	4.05	3.68	3.22	2.86	2.63	2.47	2.35	2.26	2.18	2.09	2.13	2.40	2.64	2.61	2.38	2.15	2.01	1.97	2.04	2.11	2.11	2.15	2.20	2.22	2.20	2.24	2.37	2.51	2.59	2.64	2.66	2.56	2.30	1.98	1.74	1.63	1.64	1.85	2.28	2.82	3.20	3.39	3.38	3.17	2.81	2.44	2.27	2.29	2.30	2.27	2.27
2.56	2.61	2.74	2.90	3.02	3.07	3.05	2.94	2.71	2.43	2.28	2.30	2.37	2.46	2.56	2.64	2.65	2.62	2.68	2.91	3.19	3.42	3.57	3.47	3.06	2.61	2.37	2.32	2.35	2.36	2.28	2.19	2.18	2.26	2.38	2.47	2.54	2.66	2.69	2.58	2.43	2.34	2.29	2.25	2.23	2.22	2.17	1.97	1.72	1.69	1.97	2.34	2.48	2.44	2.37	2.30	2.20	2.08	2.04	2.17	2.36	2.47	2.47	2.41	2.37	2.46	2.63	2.78	2.91	3.12	3.40	3.62	3.62	3.65	3.66	3.44	3.09	2.80	2.57	2.39	2.29	2.19	2.05	1.97	2.10	2.42	2.57	2.44	2.18	1.97	1.87	1.87	1.97	2.06	2.08	2.13	2.17	2.16	2.16	2.23	2.32	2.39	2.43	2.46	2.44	2.30	2.06	1.87	1.78	1.79	1.91	2.22	2.67	3.08	3.33	3.43	3.36	3.12	2.79	2.50	2.39	2.40	2.32	2.26	2.26
2.48	2.59	2.86	3.20	3.40	3.33	2.99	2.52	2.14	2.01	2.17	2.40	2.49	2.51	2.55	2.59	2.61	2.70	2.92	3.17	3.32	3.45	3.49	3.31	2.93	2.62	2.53	2.56	2.58	2.53	2.40	2.28	2.26	2.31	2.34	2.34	2.42	2.59	2.65	2.53	2.40	2.32	2.32	2.33	2.30	2.21	2.10	1.89	1.68	1.74	2.13	2.48	2.55	2.51	2.44	2.36	2.25	2.15	2.17	2.34	2.50	2.51	2.43	2.34	2.35	2.56	2.80	2.91	2.99	3.10	3.19	3.17	3.17	3.36	3.50	3.32	3.00	2.72	2.46	2.24	2.15	2.08	1.97	1.95	2.13	2.43	2.47	2.27	2.02	1.85	1.78	1.81	1.94	2.06	2.10	2.12	2.16	2.18	2.23	2.28	2.31	2.33	2.32	2.30	2.27	2.16	2.02	1.94	1.95	2.03	2.23	2.58	2.99	3.28	3.43	3.45	3.30	3.03	2.73	2.51	2.48	2.48	2.34	2.25	2.25
2.57	2.77	3.24	3.63	3.64	3.29	2.83	2.40	2.13	2.19	2.50	2.66	2.61	2.55	2.55	2.58	2.62	2.71	2.84	2.86	2.87	3.03	3.14	2.97	2.67	2.53	2.55	2.58	2.55	2.47	2.34	2.27	2.30	2.35	2.37	2.39	2.51	2.65	2.63	2.49	2.36	2.31	2.32	2.32	2.23	2.08	1.94	1.72	1.61	1.85	2.33	2.59	2.61	2.55	2.49	2.42	2.33	2.26	2.32	2.47	2.56	2.53	2.46	2.44	2.58	2.88	3.03	3.01	2.98	2.97	2.93	2.88	3.00	3.33	3.46	3.25	2.90	2.57	2.26	2.02	1.99	2.01	1.94	1.94	2.16	2.44	2.41	2.18	1.94	1.75	1.68	1.80	2.03	2.19	2.22	2.18	2.19	2.22	2.26	2.28	2.28	2.29	2.29	2.28	2.25	2.16	2.06	2.03	2.08	2.23	2.49	2.86	3.21	3.42	3.49	3.44	3.27	3.05	2.85	2.72	2.64	2.52	2.33	2.24	2.24
2.88	3.17	3.67	3.81	3.52	3.09	2.88	2.80	2.77	2.87	2.98	2.89	2.68	2.57	2.56	2.58	2.58	2.58	2.57	2.48	2.53	2.78	2.88	2.67	2.44	2.39	2.43	2.44	2.40	2.32	2.24	2.24	2.31	2.37	2.42	2.48	2.59	2.64	2.54	2.37	2.25	2.22	2.24	2.20	2.07	1.90	1.73	1.61	1.72	2.15	2.58	2.73	2.68	2.60	2.55	2.50	2.41	2.35	2.41	2.54	2.61	2.60	2.59	2.69	2.95	3.22	3.19	3.02	2.90	2.81	2.74	2.74	2.92	3.30	3.40	3.11	2.70	2.35	2.01	1.85	1.90	1.98	1.90	1.91	2.17	2.41	2.35	2.12	1.88	1.68	1.67	1.91	2.20	2.34	2.33	2.25	2.20	2.20	2.20	2.20	2.22	2.27	2.30	2.31	2.28	2.17	2.08	2.07	2.15	2.35	2.65	3.01	3.31	3.45	3.49	3.43	3.30	3.16	3.05	2.95	2.76	2.54	2.33	2.24	2.24
3.27	3.51	3.78	3.63	3.20	2.92	2.88	2.95	3.06	3.12	3.06	2.84	2.63	2.55	2.56	2.55	2.50	2.45	2.41	2.40	2.52	2.74	2.74	2.52	2.34	2.30	2.31	2.32	2.30	2.26	2.23	2.24	2.29	2.36	2.41	2.46	2.53	2.57	2.45	2.25	2.12	2.11	2.14	2.09	1.95	1.84	1.77	1.83	2.13	2.56	2.83	2.85	2.76	2.68	2.62	2.56	2.47	2.41	2.48	2.61	2.70	2.71	2.77	2.97	3.28	3.45	3.28	3.01	2.81	2.67	2.60	2.64	2.87	3.21	3.23	2.84	2.41	2.09	1.83	1.77	1.93	2.02	1.93	1.93	2.18	2.36	2.26	2.01	1.77	1.68	1.83	2.15	2.41	2.47	2.42	2.27	2.15	2.10	2.09	2.11	2.16	2.22	2.25	2.25	2.20	2.11	2.05	2.07	2.20	2.44	2.77	3.09	3.33	3.43	3.46	3.42	3.32	3.21	3.10	2.95	2.73	2.51	2.32	2.24	2.24
3.51	3.57	3.53	3.23	2.92	2.77	2.70	2.72	2.84	2.91	2.85	2.69	2.54	2.51	2.53	2.50	2.43	2.38	2.37	2.40	2.50	2.61	2.57	2.43	2.32	2.30	2.30	2.30	2.30	2.30	2.29	2.27	2.28	2.31	2.34	2.38	2.46	2.48	2.33	2.13	2.05	2.07	2.10	2.03	1.92	1.90	1.99	2.21	2.54	2.83	2.92	2.85	2.76	2.70	2.65	2.60	2.53	2.49	2.56	2.71	2.78	2.82	2.94	3.20	3.49	3.55	3.34	2.99	2.70	2.53	2.48	2.57	2.83	3.08	2.99	2.58	2.18	1.92	1.76	1.82	2.00	2.06	1.98	2.01	2.21	2.33	2.17	1.88	1.71	1.75	2.01	2.34	2.51	2.49	2.34	2.12	1.99	1.98	2.02	2.06	2.09	2.11	2.12	2.12	2.08	2.01	1.98	2.05	2.23	2.52	2.85	3.14	3.32	3.42	3.45	3.39	3.28	3.16	3.02	2.79	2.54	2.37	2.27	2.23	2.23
3.53	3.43	3.17	2.87	2.71	2.61	2.50	2.47	2.53	2.62	2.66	2.63	2.55	2.52	2.52	2.48	2.41	2.37	2.35	2.34	2.36	2.38	2.40	2.40	2.38	2.35	2.33	2.32	2.32	2.33	2.33	2.30	2.26	2.25	2.28	2.34	2.39	2.35	2.16	2.02	2.02	2.10	2.16	2.11	2.01	2.03	2.15	2.38	2.66	2.84	2.82	2.72	2.65	2.66	2.66	2.64	2.57	2.51	2.60	2.75	2.81	2.85	3.01	3.28	3.51	3.50	3.19	2.78	2.48	2.36	2.37	2.48	2.69	2.85	2.75	2.41	2.10	1.89	1.80	1.89	2.05	2.09	2.05	2.08	2.20	2.23	2.02	1.78	1.73	1.86	2.10	2.31	2.34	2.19	1.96	1.81	1.82	1.91	2.00	2.05	2.05	2.03	2.03	2.04	2.01	1.94	1.93	2.04	2.26	2.58	2.92	3.17	3.31	3.41	3.41	3.32	3.19	3.06	2.87	2.59	2.31	2.20	2.20	2.20	2.20
3.40	3.26	2.94	2.68	2.57	2.49	2.37	2.31	2.33	2.39	2.46	2.52	2.57	2.60	2.56	2.49	2.43	2.39	2.34	2.28	2.21	2.21	2.35	2.47	2.43	2.34	2.31	2.32	2.33	2.33	2.32	2.28	2.22	2.21	2.26	2.31	2.33	2.23	2.07	2.00	2.05	2.17	2.29	2.28	2.17	2.15	2.23	2.43	2.67	2.76	2.65	2.53	2.53	2.59	2.61	2.57	2.47	2.40	2.52	2.68	2.71	2.74	2.96	3.22	3.37	3.22	2.75	2.34	2.20	2.19	2.24	2.33	2.51	2.67	2.61	2.37	2.13	1.96	1.89	1.97	2.09	2.13	2.09	2.03	2.05	2.04	1.86	1.73	1.79	1.94	2.08	2.14	2.04	1.84	1.68	1.65	1.75	1.88	1.98	2.03	2.05	2.05	2.04	2.02	1.98	1.95	1.99	2.12	2.35	2.70	3.05	3.23	3.31	3.36	3.33	3.21	3.06	2.90	2.66	2.37	2.13	2.05	2.08	2.13	2.13
